ply
format ascii 1.0
element vertex 395
property float x
property float y
property float z
property float nx
property float ny
property float nz
end_header
-0.2408865988254547 0.034717001020908356 -0.10989667475223541 0.8785778880119324 -0.17911741137504578 -0.4427390694618225
-0.003972932696342468 0.19823573529720306 -0.03972359374165535 0.33997488021850586 -0.6999910473823547 -0.6280363202095032
-0.059101346880197525 0.1299869269132614 0.04338167607784271 0.07084095478057861 -0.5835684537887573 -0.8089680671691895
-0.06852751970291138 -0.09991836547851562 0.1810665875673294 0.6787276268005371 0.45365938544273376 -0.577513575553894
-0.09691564738750458 -0.09656517952680588 0.04204581305384636 -0.38259539008140564 -0.7490177750587463 0.5409187078475952
-0.17958542704582214 -0.029662959277629852 -0.2893187701702118 -0.8409847021102905 -0.3432750999927521 -0.418218731880188
0.07073237746953964 -0.12728622555732727 0.26352667808532715 -0.5695676207542419 -0.7869468331336975 0.23729175329208374
-0.18692520260810852 0.09319040179252625 -0.048446450382471085 0.8151453137397766 -0.5791595578193665 -0.010602082125842571
-0.22140240669250488 0.04467690736055374 -0.021807033568620682 0.8992469310760498 -0.42775583267211914 0.09154119342565536
-0.03658903017640114 -0.15467610955238342 0.1879388391971588 0.32393360137939453 0.4615999460220337 -0.8258284330368042
-0.0198192298412323 0.16125161945819855 0.015578817576169968 0.16313476860523224 -0.7034574151039124 -0.6917619705200195
-0.15446080267429352 -0.0972064658999443 -0.2724434733390808 -0.9310303926467896 0.02157522179186344 0.3643032908439636
-0.03784804418683052 0.1251608282327652 0.03787124902009964 0.019089963287115097 -0.6272991299629211 -0.7785443663597107
-0.041190117597579956 -0.08908957988023758 0.2103237360715866 0.1601996272802353 0.34214964509010315 -0.9258885979652405
-0.005591370165348053 -0.21179692447185516 0.1626325100660324 0.3524211049079895 0.11356284469366074 -0.928925633430481
-0.06210345774888992 -0.14610585570335388 0.18630437552928925 -0.4416276812553406 -0.18370451033115387 0.8781899809837341
-0.20391926169395447 -0.12610973417758942 0.012002646923065186 -0.6510142683982849 -0.24161452054977417 0.7195852398872375
-0.005123145878314972 0.05467721074819565 0.10458283126354218 0.2297162413597107 -0.821946918964386 -0.5211849212646484
-0.06884493678808212 -0.00996287539601326 0.16442251205444336 -0.7157241702079773 0.6206732988357544 0.3201616406440735
-0.05634349212050438 -0.050865452736616135 0.21381288766860962 -0.12541815638542175 0.24880272150039673 0.9603996872901917
-0.1500224471092224 0.17325246334075928 -0.09278769791126251 0.777908205986023 -0.544512927532196 -0.3136310279369354
-0.08369477093219757 -0.10245399177074432 0.04997933283448219 -0.5796693563461304 -0.6928766369819641 0.4288419485092163
-0.10961239039897919 -0.10591146349906921 0.0213187076151371 0.10008101910352707 -0.6746986508369446 0.7312765717506409
-0.021776512265205383 0.01689980924129486 0.17302465438842773 0.5586465001106262 -0.751295804977417 -0.3513810634613037
-0.11315929144620895 0.07183551043272018 0.058857180178165436 0.29074376821517944 -0.7078673243522644 -0.6437327861785889
-0.08654560148715973 0.16826672852039337 -0.005621403455734253 0.2734108865261078 -0.7708386778831482 -0.5753730535507202
-0.03131715953350067 -0.20298554003238678 0.16086651384830475 -0.19876617193222046 -0.2746281325817108 0.940782368183136
0.1495991349220276 0.09811286628246307 0.0353277213871479 0.1829298734664917 -0.605328381061554 -0.7746703624725342
-0.18410176038742065 0.08577737957239151 0.016849931329488754 -0.41302087903022766 0.7905951738357544 0.4520763158798218
-0.15135326981544495 -0.10538072139024734 0.0421372652053833 -0.014897240325808525 0.5160762071609497 -0.8564131259918213
0.04618944227695465 -0.13071897625923157 0.23567065596580505 0.4629807770252228 0.39743945002555847 -0.7922692894935608
-0.185845285654068 0.07451455295085907 0.02977488934993744 0.34608134627342224 -0.8128397464752197 -0.4685288071632385
-0.12061701714992523 0.10059227794408798 0.021867331117391586 0.42193636298179626 -0.4266594350337982 -0.7999570965766907
-0.13952192664146423 -0.09299346059560776 0.04867337644100189 0.04779858887195587 0.3871568739414215 -0.9207741022109985
-0.12244902551174164 -0.13711650669574738 -0.26600217819213867 -0.37343519926071167 -0.5879662036895752 0.7175248265266418
-0.011745676398277283 -0.02122725546360016 0.2118210643529892 0.2848447859287262 -0.21783006191253662 -0.933495283126831
-0.23303928971290588 0.025103043764829636 0.0037029869854450226 0.9568082094192505 -0.2614489197731018 -0.12713195383548737
0.15611031651496887 -0.13623102009296417 0.30024465918540955 -0.2774169445037842 -0.0862693041563034 0.956868588924408
-0.024105310440063477 0.21416957676410675 -0.3282943367958069 0.42162325978279114 -0.9050509929656982 0.05582468956708908
-0.021776512265205383 0.01689980924129486 0.17302465438842773 0.5586465001106262 -0.751295804977417 -0.3513810634613037
-0.2313196361064911 -0.01476829033344984 0.0240989588201046 0.9749879240989685 0.06225971877574921 -0.21335932612419128
-0.08887776732444763 0.10422653704881668 0.04034604877233505 0.3797260820865631 -0.44062358140945435 -0.8134242296218872
-0.11226845532655716 -0.11363866180181503 0.02000926434993744 0.13871455192565918 -0.6725503206253052 0.7269348502159119
-0.13737168908119202 0.16304244101047516 -0.06693437695503235 0.7424117922782898 -0.4782523810863495 -0.4691474735736847
-0.14768774807453156 -0.16354112327098846 -0.2799450755119324 0.32884538173675537 0.1246962919831276 -0.9361151456832886
-0.05332536622881889 -0.00818580947816372 0.173458069562912 0.6379718780517578 -0.6900846362113953 -0.3417234718799591
-0.16589683294296265 -0.14601388573646545 -0.29117244482040405 0.5053041577339172 -0.027529150247573853 -0.8625020980834961
0.01708129793405533 -0.23597410321235657 0.158571258187294 -0.2958458364009857 -0.44482651352882385 0.8453428745269775
-0.2004128396511078 0.0472705140709877 0.05381275340914726 0.6169134974479675 -0.5110315680503845 -0.5985519289970398
-0.1502733677625656 -0.10846371948719025 -0.26963090896606445 -0.8705555200576782 -0.0993000864982605 0.4819466471672058
-0.07207333296537399 -0.03307095915079117 0.11797894537448883 -0.7054963111877441 0.122981496155262 0.6979617476463318
-0.1460898369550705 -0.09006800502538681 0.044732142239809036 -0.008533378131687641 0.27823591232299805 -0.9604748487472534
0.05471181124448776 -0.174172505736351 0.223934605717659 0.24832040071487427 0.4624791145324707 -0.8511462807655334
-0.10718180984258652 -0.12118678539991379 0.005114339292049408 0.0032225968316197395 -0.54942387342453 0.8355376124382019
-0.26638221740722656 0.012940720655024052 -0.137725368142128 -0.9113054871559143 0.011125074699521065 0.4115804135799408
-0.10731488466262817 -0.02614516206085682 0.09711132943630219 0.28458172082901 0.22407081723213196 -0.9320973753929138
0.12488653510808945 -0.14274218678474426 0.29574668407440186 -0.12143246829509735 0.22570280730724335 -0.966598391532898
-0.22124922275543213 0.03031071648001671 0.04214689880609512 0.7885962724685669 -0.31848278641700745 -0.5260080695152283
0.09090789407491684 -0.07658348977565765 0.3144891560077667 0.24484987556934357 -0.06137123703956604 -0.9676167368888855
0.015386626124382019 -0.09700839221477509 0.24372245371341705 0.8411020040512085 0.005552044603973627 -0.5408480167388916
0.14245891571044922 0.07832595705986023 0.04989200457930565 0.14485286176204681 -0.4533359706401825 -0.879490852355957
-0.1965356022119522 -0.006937843747437 0.057814475148916245 0.29092222452163696 0.43604469299316406 -0.8516039252281189
-0.0915253609418869 0.041306909173727036 0.08609293401241302 0.18676690757274628 -0.33486300706863403 -0.9235718250274658
-0.1360122114419937 0.12860341370105743 -0.0016330517828464508 0.6172878742218018 -0.48741888999938965 -0.617558479309082
-0.08104601502418518 -0.09474805742502213 0.05128517374396324 -0.6747839450836182 -0.6182539463043213 0.4030243456363678
-0.035015225410461426 -0.1321757733821869 0.2017296403646469 0.4851827025413513 0.23007719218730927 -0.8436007499694824
-0.19703266024589539 0.08450108021497726 -0.035974759608507156 0.768494188785553 -0.6383576393127441 0.04377450421452522
0.14279428124427795 0.10114386677742004 0.031244289129972458 0.056774429976940155 -0.6337417960166931 -0.7714583873748779
-0.07160738110542297 -0.08007685095071793 0.13333918154239655 0.9891201853752136 0.12029826641082764 0.08467308431863785
-0.2201312780380249 -0.08609113097190857 -0.07576516270637512 -0.8485779762268066 -0.48970574140548706 0.20025905966758728
0.07681069523096085 -0.13903814554214478 0.3082236051559448 -0.1315384805202484 -0.48717615008354187 0.8633406162261963
-0.07679957151412964 -0.051523465663194656 0.12938593327999115 0.9937676787376404 0.1003362238407135 -0.04856313392519951
0.1261892318725586 -0.1173267513513565 0.2956986725330353 0.11445987224578857 -0.05169118568301201 0.9920821189880371
-0.028568826615810394 -0.13504710793495178 0.20559795200824738 0.3994747996330261 0.2542010247707367 -0.8807961344718933
0.025689512491226196 -0.06703457236289978 0.24880178272724152 0.7497389912605286 -0.2995876669883728 -0.5900327563285828
-0.19311100244522095 0.04088078439235687 0.07188146561384201 0.5489462614059448 -0.3378291130065918 -0.7645453214645386
-0.217055082321167 -0.12025881558656693 0.004120171070098877 -0.8602064847946167 -0.361177921295166 0.35999351739883423
-0.2182914912700653 -0.06442824751138687 0.03331665322184563 0.7052661180496216 0.1530822068452835 -0.6922178268432617
-0.21622592210769653 0.05258402228355408 -0.06431645154953003 0.825707733631134 -0.5397030115127563 -0.16409555077552795
-0.03178844973444939 -0.17024607956409454 -0.30240997672080994 0.11274576932191849 -0.7177079916000366 0.6871562004089355
0.00902005285024643 0.1610090434551239 0.018895376473665237 0.1885775625705719 -0.7012730240821838 -0.6874988079071045
-0.07717053592205048 -0.07073578238487244 0.09807898104190826 0.7974704504013062 0.42707303166389465 -0.4262034595012665
-0.23814734816551208 0.07256103307008743 -0.12308669090270996 0.6571467518806458 -0.4664371609687805 -0.5921102166175842
-0.05352815240621567 0.04199039936065674 0.10833209753036499 0.31435632705688477 -0.6813564300537109 -0.6610093712806702
0.20917028188705444 0.04761800915002823 0.0582527294754982 -0.10133787244558334 0.30514493584632874 0.9468987584114075
0.0306258425116539 0.17917294800281525 -0.005258239805698395 0.3070242702960968 -0.7242944240570068 -0.6173602342605591
-0.21864187717437744 0.03789623826742172 0.0434323325753212 0.7555509209632874 -0.37622305750846863 -0.5362826585769653
-0.22284916043281555 0.09700381755828857 -0.13302016258239746 -0.5082670450210571 0.7029827237129211 0.49747341871261597
0.13974198698997498 0.07042169570922852 0.048552561551332474 0.19266675412654877 -0.48536068201065063 -0.8528214693069458
-0.011715356260538101 0.057613492012023926 0.10062700510025024 -0.2391132265329361 0.6338046193122864 0.7356061935424805
0.07980646938085556 -0.03601049259305 0.26592952013015747 0.3479968011379242 -0.742695152759552 -0.5721031427383423
0.13908198475837708 -0.1230694130063057 0.3034352958202362 0.24807867407798767 0.012182358652353287 -0.9686632752418518
-0.17018958926200867 -0.05571569502353668 0.043103575706481934 0.19298586249351501 0.2537122070789337 -0.9478325843811035
-0.02180587127804756 -0.16511255502700806 -0.29672545194625854 0.07702142745256424 -0.6527426242828369 0.7536542415618896
-0.2475821077823639 0.037699293345212936 -0.11391448974609375 0.8370744585990906 -0.08615562319755554 -0.5402624607086182
0.1509520709514618 -0.10786426812410355 0.2963172495365143 0.2180274873971939 -0.2956399917602539 -0.930086612701416
0.14687249064445496 0.09018032252788544 0.03398347273468971 0.20071974396705627 -0.5566540956497192 -0.8061313629150391
-0.13952192664146423 -0.09299346059560776 0.04867337644100189 0.04779858887195587 0.3871568739414215 -0.9207741022109985
0.004788994789123535 -0.16441687941551208 0.21249142289161682 0.5388273596763611 0.4699668288230896 -0.6991396546363831
0.0011470988392829895 -0.026969920843839645 0.21955770254135132 0.4075700640678406 -0.021223396062850952 -0.9129272699356079
-0.16789963841438293 -0.010945912450551987 0.07471902668476105 0.5534393191337585 0.32939910888671875 -0.7649844288825989
-0.16867955029010773 -0.10710804909467697 -0.29404452443122864 -0.6979520916938782 -0.029463626444339752 0.7155381441116333
-0.23989257216453552 -0.00911590177565813 -0.030922699719667435 0.9948318600654602 0.005790479481220245 -0.10137075930833817
-0.015223346650600433 0.12402627617120743 0.05116232857108116 0.07106302678585052 -0.653454065322876 -0.7536232471466064
0.07235581427812576 0.11948756128549576 0.039210546761751175 -0.2665546238422394 -0.3504304587841034 -0.8978570103645325
-0.14139528572559357 0.17385920882225037 -0.06963688135147095 0.7297283411026001 -0.5398023724555969 -0.4196544885635376
-0.18479116261005402 0.04905925318598747 0.06290775537490845 0.5028063654899597 -0.48838305473327637 -0.7132094502449036
-0.19070598483085632 0.0962681695818901 -0.01905686780810356 0.6294788718223572 -0.757937490940094 -0.1711345613002777
-0.06801912933588028 -0.1100282296538353 0.10469454526901245 0.9776925444602966 0.14045485854148865 0.15617172420024872
-0.12105764448642731 -0.1565694361925125 -0.2645661234855652 0.3140987753868103 0.5182368755340576 -0.7954699993133545
-0.19366881251335144 -0.027050409466028214 -0.2795371413230896 -0.8731212019920349 -0.4023419916629791 -0.2752818763256073
-0.06179411709308624 0.14476971328258514 0.023216361179947853 0.04840777814388275 -0.7317924499511719 -0.6798061728477478
0.012737207114696503 -0.058128029108047485 0.2273423671722412 0.5053041577339172 -0.027529150247573853 -0.8625020980834961
-0.21694162487983704 0.04881769418716431 -0.04649965092539787 0.8644765019416809 -0.5026732683181763 -4.8413261538371444e-05
0.05894935876131058 -0.06234860047698021 0.2953116297721863 0.6960756778717041 -0.3633318841457367 -0.6192484498023987
-0.2021999955177307 0.036206793040037155 0.06670579314231873 0.5264201760292053 -0.3318711817264557 -0.7827792167663574
-0.1368902176618576 -0.08533710241317749 0.04997081309556961 0.1947506070137024 0.2988612651824951 -0.9342131614685059
-0.045020297169685364 -0.03553920239210129 0.20637057721614838 0.40543684363365173 -0.22410325706005096 -0.8862272500991821
0.04885486513376236 -0.03955455496907234 0.24790936708450317 0.6152107119560242 -0.3583807349205017 -0.7021958827972412
-0.17429354786872864 -0.12344066053628922 -0.2968122363090515 -0.5804710388183594 -0.05253244563937187 0.8125845789909363
0.13521865010261536 -0.11268337815999985 0.30084043741226196 0.13562311232089996 -0.3380533754825592 -0.9313035607337952
-0.16867955029010773 -0.10710804909467697 -0.29404452443122864 -0.6979520916938782 -0.029463626444339752 0.7155381441116333
-0.011855240911245346 0.2286108285188675 -0.07701383531093597 -0.5054758191108704 0.6977209448814392 0.5076215267181396
-0.2091599404811859 -0.09728974103927612 0.008012481033802032 0.7043736577033997 0.34193387627601624 -0.6220441460609436
-0.21356943249702454 -0.10945304483175278 -0.01229851320385933 -0.9386353492736816 -0.20866334438323975 0.27463290095329285
-0.08660867810249329 -0.1525212824344635 0.1721525490283966 0.8183326125144958 -0.2632735073566437 -0.5108999013900757
-0.04183521121740341 0.13587966561317444 0.03519320487976074 -0.003837739583104849 -0.6644758582115173 -0.7472999095916748
-0.2088303565979004 0.1254233419895172 -0.15741704404354095 -0.5486169457435608 0.6496597528457642 0.5262714624404907
0.06803590804338455 -0.05456886440515518 0.286799818277359 0.6122339963912964 -0.6143133044242859 -0.49778372049331665
-0.24091249704360962 0.0021977275609970093 -0.00017851963639259338 0.9956876039505005 0.0004961565718986094 -0.09276808053255081
-0.17238421738147736 -0.12249885499477386 0.030362475663423538 -0.19646337628364563 -0.5849363207817078 0.7869254350662231
-0.03808419778943062 0.06935863196849823 0.08480372279882431 0.13868416845798492 -0.6114572286605835 -0.7790293097496033
-0.1293012648820877 0.1865214705467224 -0.06295564770698547 0.7247747778892517 -0.5493238568305969 -0.41586628556251526
0.12230352312326431 -0.1502569019794464 0.294473260641098 -0.12143246829509735 0.22570280730724335 -0.966598391532898
-0.23263826966285706 -0.040495142340660095 0.024147573858499527 0.9261001944541931 0.19735340774059296 -0.3215431272983551
-0.11989740282297134 0.19135740399360657 -0.05760066583752632 0.6861305832862854 -0.5750435590744019 -0.44558918476104736
-0.08654560148715973 0.16826672852039337 -0.005621403455734253 0.2734108865261078 -0.7708386778831482 -0.5753730535507202
0.08717014640569687 0.0947745144367218 0.048678427934646606 -0.33322134613990784 -0.42422711849212646 -0.8420183658599854
-0.10152938216924667 0.13997487723827362 0.01820605993270874 0.43271008133888245 -0.4538615643978119 -0.7789554595947266
-0.22254163026809692 0.0556434765458107 0.008878331631422043 0.8927876353263855 -0.4482242166996002 -0.04500309377908707
-0.129567950963974 -0.04739706218242645 0.0666365846991539 0.39568981528282166 0.6479138135910034 -0.6508742570877075
-0.18331164121627808 -0.09389123320579529 0.03663438931107521 0.4231494069099426 0.4019031524658203 -0.8120458722114563
-0.03096935525536537 0.21878142654895782 -0.08789826929569244 0.47932595014572144 -0.7138261795043945 -0.5105867385864258
-0.19869276881217957 -0.02930086851119995 0.043677546083927155 0.2095186710357666 0.35483261942863464 -0.9111508131027222
0.08043210953474045 0.09777574241161346 0.044635109603405 0.3374681770801544 0.39458826184272766 0.8546434044837952
-0.21471571922302246 0.06394259631633759 -0.07738116383552551 0.7456024885177612 -0.6127841472625732 -0.26186344027519226
0.04741326719522476 -0.11735230684280396 0.29030871391296387 0.8427219390869141 0.3234698474407196 -0.4303334653377533
-0.238203763961792 0.042522087693214417 -0.1085740327835083 0.8230924010276794 -0.134077787399292 -0.551853358745575
-0.24622908234596252 0.0640968531370163 -0.11396434903144836 0.7316128611564636 -0.22957611083984375 -0.6419013738632202
-0.157237708568573 0.11132689565420151 -0.013516765087842941 0.5093615651130676 -0.7312741875648499 -0.45363956689834595
-0.22648653388023376 -0.028584778308868408 0.04095839709043503 -0.7866189479827881 -0.20391835272312164 0.5827932357788086
0.04997437447309494 -0.10990133881568909 0.29157131910324097 0.8588757514953613 0.1300983875989914 -0.4953855276107788
-0.2183278501033783 0.12053925544023514 -0.1628253310918808 -0.5540483593940735 0.6593645811080933 0.5082014799118042
-0.04850007966160774 0.11635469645261765 0.05002763122320175 -0.06524252891540527 0.5579293966293335 0.8273199200630188
-0.062469907104969025 -0.18659694492816925 0.17379514873027802 -0.0736413225531578 -0.5104132890701294 0.8567702770233154
0.044946812093257904 -0.1158008947968483 0.2480534166097641 -0.5705748200416565 -0.6095812916755676 0.5503226518630981
0.1131080761551857 -0.11461302638053894 0.3015352785587311 0.26284387707710266 -0.10395381599664688 0.9592218995094299
0.01634109765291214 0.1541452705860138 0.03699047118425369 0.10972128808498383 -0.6455212831497192 -0.7558197975158691
-0.13611763715744019 -0.044479724019765854 0.06270628422498703 0.6096885204315186 0.4377601444721222 -0.6607919931411743
0.01659943163394928 -0.21290971338748932 0.17566868662834167 -0.3664189279079437 -0.39519965648651123 0.8423504829406738
0.06427951902151108 0.14119938015937805 0.03378599137067795 -0.24710841476917267 -0.46280941367149353 -0.8513194918632507
-0.02250206097960472 0.15344654023647308 0.014256179332733154 0.1502707302570343 -0.7044342756271362 -0.6936792731285095
0.08580782264471054 -0.048536673188209534 0.3106060326099396 -0.3749524652957916 0.3862771689891815 0.8427339792251587
-0.07728007435798645 -0.004437614232301712 0.11401461809873581 0.5754064917564392 -0.1664150059223175 -0.8007580041885376
-0.23463252186775208 -0.03804253414273262 -0.026917774230241776 0.9951980113983154 0.09607139229774475 -0.018737126141786575
0.002252645790576935 -0.18897660076618195 0.16649961471557617 0.3844720721244812 0.4640498757362366 -0.7980219125747681
0.023046962916851044 -0.07138539850711823 0.2338055670261383 -0.7608405351638794 0.25254055857658386 0.5977833271026611
-0.19330139458179474 0.08104647696018219 0.011611253023147583 0.4457610845565796 -0.8019992709159851 -0.3976105749607086
-0.08764547854661942 -0.0572659932076931 0.09151221811771393 0.721881091594696 0.5069530606269836 -0.4710479974746704
-0.08071013540029526 -0.05724458023905754 0.19974109530448914 -0.7419517040252686 0.23697379231452942 0.6271770596504211
0.006337150931358337 0.17606516182422638 -0.0012728795409202576 0.12593361735343933 -0.817182719707489 -0.5624527335166931
-0.0617574043571949 0.12225974351167679 0.04207223653793335 -0.08485275506973267 0.5847723484039307 0.8067473769187927
-0.14171439409255981 0.1435452401638031 -0.05526934936642647 0.7746090888977051 -0.5434653759002686 -0.3234596848487854
-0.20611131191253662 0.0030593955889344215 0.06547229737043381 0.4236674904823303 0.3162844479084015 -0.8488050699234009
-0.09812042117118835 -0.04379620403051376 0.08494546264410019 -0.7301996946334839 -0.45419251918792725 0.5104091763496399
0.1470777690410614 -0.09744884073734283 0.2937150299549103 0.032370250672101974 0.15916988253593445 0.9867203831672668
0.03724242001771927 -0.05171263590455055 0.24149417877197266 0.6261228322982788 -0.23691248893737793 -0.7428611516952515
-0.05824009329080582 -0.15649190545082092 0.18889926373958588 0.28236401081085205 0.14590607583522797 -0.948146641254425
0.06790217012166977 -0.057744622230529785 0.3004097640514374 0.5908684134483337 -0.23040734231472015 -0.7731668949127197
-0.010465331375598907 -0.03912800922989845 0.2131425142288208 0.19318415224552155 0.07341673970222473 -0.9784119725227356
-0.129567950963974 -0.04739706218242645 0.0666365846991539 0.39568981528282166 0.6479138135910034 -0.6508742570877075
0.03640439361333847 0.1002083569765091 0.05046627297997475 -0.13970546424388885 -0.4657750427722931 -0.8738055229187012
-0.009111069142818451 0.14748196303844452 0.02229178324341774 0.17671175301074982 -0.6743499636650085 -0.7169554233551025
0.041008785367012024 -0.14579087495803833 0.23311658203601837 -0.2502110004425049 -0.3920693099498749 0.8852548599243164
0.05783960968255997 -0.12154357135295868 0.2557900547981262 -0.5263969898223877 -0.6981906294822693 0.48521745204925537
-0.1635718196630478 0.07339765131473541 0.04285963624715805 0.18273431062698364 -0.820560872554779 -0.5415607690811157
-0.05435439199209213 -0.12356177717447281 0.19012467563152313 0.5409420728683472 -0.016154179349541664 -0.840904712677002
-0.008140236139297485 -0.158657968044281 0.20473290979862213 0.507960855960846 0.4971913695335388 -0.7034034729003906
-0.2569836378097534 -0.012113545089960098 -0.11783254146575928 -0.9270681142807007 -0.29549551010131836 0.23071004450321198
-0.17565962672233582 0.12127100676298141 -0.10614833235740662 0.7906407713890076 -0.5700632333755493 -0.22341659665107727
-0.07257868349552155 -0.15259674191474915 -0.2725229263305664 0.2695118486881256 -0.726100742816925 0.6325670480728149
-0.23276707530021667 0.08821370452642441 -0.12043419480323792 0.5504372715950012 -0.6518728137016296 -0.5216135382652283
-0.028597071766853333 0.023222174495458603 0.15524005889892578 -0.545775830745697 0.7449781894683838 0.3835833966732025
-0.12806302309036255 -0.15344911813735962 -0.26876989006996155 0.32795053720474243 0.4822461009025574 -0.8123343586921692
-0.16028283536434174 -0.1296812742948532 -0.28840476274490356 -0.5932323932647705 -0.0805455818772316 0.8009917140007019
-0.20204979181289673 0.12240315228700638 -0.1533481925725937 0.5152078866958618 -0.674786388874054 -0.5284165740013123
-0.12792088091373444 0.15979376435279846 -0.029591020196676254 0.7267959713935852 -0.5839517712593079 -0.36161836981773376
0.1781701147556305 0.06709272414445877 0.05305636301636696 -0.10133787244558334 0.30514493584632874 0.9468987584114075
-0.0551411509513855 0.14180636405944824 0.027208639308810234 0.0031526866368949413 -0.6928935050964355 -0.7210330963134766
-0.027066566050052643 -0.17263658344745636 0.1759750247001648 0.3313434422016144 0.6393055319786072 -0.6939019560813904
-0.12792088091373444 0.15979376435279846 -0.029591020196676254 0.7267959713935852 -0.5839517712593079 -0.36161836981773376
-0.23158439993858337 -0.060493260622024536 -0.05158928409218788 -0.8858733773231506 -0.43599045276641846 0.15855786204338074
-0.08372020721435547 -0.06781844049692154 0.0941486805677414 0.7231433987617493 0.49437272548675537 -0.4823475778102875
-0.05141642317175865 0.05316273123025894 0.09562575817108154 -0.1439804583787918 0.5337129235267639 0.8333187103271484
-0.22124922275543213 0.03031071648001671 0.04214689880609512 0.7885962724685669 -0.31848278641700745 -0.5260080695152283
-0.052966829389333725 0.1843656599521637 -0.036281559616327286 0.10866706818342209 -0.9125229120254517 -0.3943263590335846
0.046256616711616516 -0.00040301308035850525 0.23155061900615692 0.2799990475177765 -0.5356059074401855 -0.7966974377632141
-0.01563137024641037 -0.054157402366399765 0.21059565246105194 0.07286441326141357 0.11659888178110123 -0.990502655506134
0.07121170312166214 0.06670443713665009 0.07192780077457428 -0.2383732795715332 -0.6759507656097412 -0.6973296999931335
-0.22913667559623718 -0.0294596329331398 0.007730875164270401 0.9818147420883179 0.10085077583789825 -0.1608382761478424
-0.008967623114585876 -0.15167106688022614 -0.2896330654621124 0.12229282408952713 -0.6588351130485535 0.7422807812690735
-0.02316007763147354 -0.03663540259003639 0.21921256184577942 0.15213240683078766 -0.10010407865047455 -0.9832776188850403
-0.010487668216228485 -0.08244418352842331 0.21451199054718018 0.30715668201446533 0.026386430487036705 -0.9512931108474731
0.030796028673648834 -0.04884130507707596 0.2376258671283722 0.5382751822471619 -0.15312522649765015 -0.8287415504455566
-0.2274315357208252 -0.06912850588560104 0.028111901134252548 0.7864371538162231 0.1788591593503952 -0.5912072658538818
-0.2241293489933014 -0.07534289360046387 -0.0784505307674408 -0.8570681214332581 -0.4808407127857208 0.18500381708145142
0.09095486253499985 0.15595325827598572 0.01724022999405861 -0.2870914936065674 -0.49492135643959045 -0.820141077041626
0.14687249064445496 0.09018032252788544 0.03398347273468971 0.20071974396705627 -0.5566540956497192 -0.8061313629150391
-0.08703011274337769 -0.14952626824378967 -0.26297152042388916 0.08701567351818085 -0.7212367057800293 0.6872014403343201
-0.0014582574367523193 -0.07780082523822784 0.21965374052524567 -0.4452715218067169 0.046607110649347305 0.8941817879676819
0.017962351441383362 -0.08951493352651596 0.24499228596687317 0.8571771383285522 -0.08159295469522476 -0.508517324924469
-0.08561599999666214 0.1417970061302185 0.027470890432596207 -0.2902087867259979 0.6267237067222595 0.7231848239898682
-0.12124967575073242 0.1568222939968109 -0.02558780089020729 0.6312096118927002 -0.6709240674972534 -0.3891468048095703
-0.0730270966887474 -0.07789918035268784 0.20490151643753052 0.552532970905304 0.41211581230163574 -0.7244777083396912
-0.008981265127658844 0.03975658118724823 0.13450157642364502 0.3850742280483246 -0.8705435395240784 -0.3063848316669464
0.0664907917380333 0.012473628856241703 0.22487808763980865 0.12387239187955856 -0.6457676887512207 -0.7534187436103821
-0.15363731980323792 0.12307793647050858 -0.02989840880036354 0.6696912050247192 -0.6972013711929321 -0.2557809352874756
-0.07718370854854584 -0.14446277916431427 -0.25736451148986816 0.1823330521583557 -0.6908465027809143 0.6996325254440308
-0.0014359205961227417 -0.034484632313251495 0.2182842642068863 0.34641093015670776 -0.05080443620681763 -0.9367061257362366
-0.11120298504829407 0.028215043246746063 0.09309838712215424 0.010734771378338337 -0.2924523949623108 -0.9562198519706726
-0.12792088091373444 0.15979376435279846 -0.029591020196676254 0.7267959713935852 -0.5839517712593079 -0.36161836981773376
-0.051771365106105804 -0.11604706197977066 0.19139811396598816 0.526776134967804 0.13395582139492035 -0.8393824100494385
-0.036295562982559204 -0.11427503824234009 0.2004081904888153 0.43880027532577515 0.2612415850162506 -0.8597716093063354
0.05069093406200409 -0.20452579855918884 0.20896081626415253 -0.3800956904888153 -0.6222764849662781 0.6843239665031433
-0.03344067931175232 -0.023415492847561836 0.21276763081550598 0.27794963121414185 -0.3085043132305145 -0.9097082614898682
-0.014515269547700882 0.017976120114326477 0.19536027312278748 0.48100975155830383 -0.6660260558128357 -0.5701218247413635
-0.019482560455799103 0.027909308671951294 0.16043026745319366 -0.5054097175598145 0.8029918670654297 0.3158559501171112
-0.11490921676158905 0.17660611867904663 -0.04062053933739662 -0.4873141348361969 0.6518812775611877 0.5810126662254333
-0.19614437222480774 0.14234806597232819 -0.16864094138145447 -0.6169129014015198 0.608755886554718 0.49883338809013367
0.05525658279657364 -0.12905825674533844 0.2545166313648224 -0.6041235327720642 -0.47028976678848267 0.6433212757110596
-0.16758786141872406 -0.09209080785512924 0.045788828283548355 -0.2644364833831787 -0.176099956035614 0.9481889009475708
-0.013026028871536255 -0.003326531033962965 0.2104996144771576 0.37231144309043884 -0.44860926270484924 -0.8124862313270569
-0.014731425791978836 -0.21649719774723053 0.15742775797843933 -0.30127429962158203 -0.20479272305965424 0.931286096572876
0.02064577490091324 0.039658501744270325 0.16997785866260529 0.2420659065246582 -0.9251747727394104 -0.2923279106616974
0.08245400339365005 -0.025215672329068184 0.25354912877082825 0.15538246929645538 -0.5986682176589966 -0.7857815623283386
-0.06179411709308624 0.14476971328258514 0.023216361179947853 0.04840777814388275 -0.7317924499511719 -0.6798061728477478
-0.09969325363636017 -0.1627844125032425 -0.26996713876724243 0.03751912713050842 0.5869777798652649 -0.8087332248687744
0.1444874405860901 -0.104984812438488 0.29243800044059753 -0.15985551476478577 0.259698748588562 0.9523669481277466
-0.18410176038742065 0.08577737957239151 0.016849931329488754 -0.41302087903022766 0.7905951738357544 0.4520763158798218
-0.0633838027715683 -0.12820513546466827 0.18498292565345764 0.6931999921798706 -0.06563778221607208 -0.7177503108978271
-0.049215156584978104 0.08656012266874313 0.06414659321308136 0.2101568728685379 -0.5635589957237244 -0.798896312713623
-0.03565436601638794 0.19051548838615417 -0.044451091438531876 0.2810418903827667 -0.8614387512207031 -0.42301151156425476
0.06952475756406784 -0.019456762820482254 0.24579061567783356 0.22253961861133575 -0.5293068289756775 -0.8187248706817627
-0.17565962672233582 0.12127100676298141 -0.10614833235740662 0.7906407713890076 -0.5700632333755493 -0.22341659665107727
-0.06243602931499481 0.09244892746210098 0.05621308088302612 0.31101715564727783 -0.5400399565696716 -0.78206467628479
-0.034761957824230194 -0.09195279330015182 0.2141811102628708 -0.028152823448181152 0.3127420246601105 -0.9494208097457886
-0.13383789360523224 0.10648108273744583 0.013933815062046051 0.5724189281463623 -0.3908991813659668 -0.7207872867584229
-0.11318368464708328 0.18836699426174164 -0.053571928292512894 0.44458410143852234 -0.7650994658470154 -0.4657980501651764
0.02306929975748062 -0.02806921675801277 0.23243609070777893 0.5171627402305603 -0.08703943341970444 -0.8514499068260193
-0.06639769673347473 0.1030992791056633 0.05355216562747955 0.3482550382614136 -0.44322824478149414 -0.8259946703910828
0.034544169902801514 -0.1429114192724228 0.22923733294010162 0.30847424268722534 0.3116588890552521 -0.8987282514572144
-0.1775330901145935 0.042664531618356705 0.08095098286867142 0.46847718954086304 -0.35840895771980286 -0.8075098395347595
-0.04866045340895653 -0.07152006030082703 0.218973308801651 0.1309136599302292 -0.06797169148921967 -0.9890609383583069
0.041733987629413605 -0.16839195787906647 0.21614693105220795 -0.19256623089313507 -0.53611159324646 0.8218896985054016
-0.00040087103843688965 0.17906638979911804 -0.005316201597452164 0.09210716933012009 -0.8144261240959167 -0.5729103684425354
0.04366927593946457 -0.0609479695558548 0.2727280259132385 0.7533234357833862 -0.5223178863525391 -0.3996095359325409
0.10906394571065903 -0.06422721594572067 0.31114470958709717 -0.05885531008243561 -0.046177275478839874 -0.9971979260444641
-0.22523412108421326 -0.08402229845523834 0.011758755892515182 -0.8750961422920227 -0.44604024291038513 0.18776234984397888
-0.1490791141986847 -0.14408819377422333 -0.28138113021850586 -0.5961253643035889 -0.13924570381641388 0.7907244563102722
-0.0527251735329628 -0.014825845137238503 0.20119547843933105 0.541172444820404 -0.5920549035072327 -0.597162663936615
0.04870489984750748 -0.09215244650840759 0.29026108980178833 0.7223219871520996 -0.12343461066484451 -0.6804519295692444
-0.014731425791978836 -0.21649719774723053 0.15742775797843933 -0.30127429962158203 -0.20479272305965424 0.931286096572876
-0.18808890879154205 -0.010816948488354683 -0.2767862379550934 -0.8731212019920349 -0.4023419916629791 -0.2752818763256073
-0.12036563456058502 -0.020332131534814835 0.0892798900604248 0.40561848878860474 0.26642119884490967 -0.8743531107902527
0.04562283307313919 -0.17884650826454163 0.21875892579555511 0.3180631995201111 0.46147620677948 -0.8281760215759277
-0.058776967227458954 0.026720207184553146 0.10574443638324738 0.5563870072364807 -0.4451805651187897 -0.7016037106513977
-0.1490791141986847 -0.14408819377422333 -0.28138113021850586 -0.5961253643035889 -0.13924570381641388 0.7907244563102722
-0.02454211562871933 0.1192341223359108 0.0458558052778244 0.12254690378904343 -0.6334381103515625 -0.7640277147293091
0.056018389761447906 0.029267452657222748 0.20461979508399963 0.09785432368516922 -0.6593304872512817 -0.7454581260681152
-0.2053714394569397 0.06874791532754898 -0.07206010818481445 0.7488611340522766 -0.659029483795166 -0.06990709155797958
-0.0928262248635292 0.059494443237781525 0.08475030213594437 0.244963139295578 -0.5099729895591736 -0.8245730400085449
0.0653967335820198 0.09979961812496185 0.053877804428339005 -0.18531449139118195 -0.45534855127334595 -0.8708135485649109
-0.1366337537765503 0.036356013268232346 0.09152664244174957 0.14633655548095703 -0.19092175364494324 -0.9706361293792725
-0.18723690509796143 -0.08333878219127655 0.033997926861047745 0.3978852331638336 0.4942663609981537 -0.7729088664054871
0.050063714385032654 -0.1411343812942505 0.23827287554740906 0.13852515816688538 0.5634022355079651 -0.8144868016242981
-0.13711276650428772 0.1902572214603424 -0.10388310253620148 -0.7450809478759766 0.6210085153579712 0.2433163821697235
0.09501849859952927 0.14502881467342377 0.019969630986452103 0.32042884826660156 0.40952616930007935 0.8541742563247681
0.011343210935592651 0.00645830761641264 0.21087729930877686 0.3116879463195801 -0.47900208830833435 -0.8206141591072083
-0.07468999922275543 -0.13293837010860443 0.01093810424208641 -0.3682817816734314 -0.6549888253211975 0.6598167419433594
0.03468174487352371 -0.01591116189956665 0.23885127902030945 0.36533525586128235 -0.37138688564300537 -0.8535817861557007
-0.23475244641304016 0.02803027257323265 -0.08797359466552734 -0.8757900595664978 0.37707504630088806 0.30134063959121704
-0.225408136844635 0.03283556178212166 -0.08265252411365509 0.8793522119522095 -0.4066035747528076 -0.24781672656536102
-0.21567681431770325 -0.056821465492248535 0.03460569307208061 0.6175287365913391 0.05852394923567772 -0.7843680381774902
-0.24484172463417053 -0.05458821728825569 -0.059544678777456284 0.9010255336761475 0.3848830759525299 -0.20004475116729736
-0.21944710612297058 0.05216769874095917 -0.09789314866065979 0.7478656768798828 -0.43286409974098206 -0.5033144950866699
0.07941611856222153 -0.045689698308706284 0.30677053332328796 -0.40732768177986145 0.40019360184669495 0.8209319114685059
-0.07473322749137878 -0.12837158143520355 0.11946241557598114 0.9944425821304321 -0.033026836812496185 0.09996538609266281
0.09497108310461044 -0.16302067041397095 0.23357798159122467 -0.020025204867124557 0.32062920928001404 -0.9469931125640869
0.017858587205410004 -0.12973099946975708 0.23262816667556763 0.4003533124923706 0.34464988112449646 -0.8490781784057617
0.0763939693570137 0.10863164812326431 0.04192282631993294 -0.2855576276779175 -0.37548986077308655 -0.8817393779754639
0.04999653249979019 -0.06695260107517242 0.2902134954929352 0.6426277160644531 -0.3336014151573181 -0.6897388696670532
0.20917028188705444 0.04761800915002823 0.0582527294754982 -0.10133787244558334 0.30514493584632874 0.9468987584114075
-0.20558509230613708 -0.09277431666851044 0.023549649864435196 0.41773390769958496 0.5384659767150879 -0.7318146824836731
-0.18564200401306152 -0.03511390462517738 0.051508981734514236 0.08210959285497665 0.38878124952316284 -0.9176639318466187
0.07297972589731216 0.009583349339663982 0.22877193987369537 0.039058130234479904 -0.6449679732322693 -0.7632108330726624
-0.19831112027168274 0.025752238929271698 0.06931780278682709 0.4432438313961029 -0.13621756434440613 -0.8859907984733582
0.06427951902151108 0.14119938015937805 0.03378599137067795 -0.24710841476917267 -0.46280941367149353 -0.8513194918632507
-0.17440678179264069 -0.008047519251704216 0.07081425189971924 0.49793389439582825 0.3831755518913269 -0.7779706120491028
-0.19532477855682373 0.07742349058389664 -0.08456698060035706 0.7422647476196289 -0.6329498291015625 -0.2200399488210678
-0.2100001871585846 0.01351394783705473 0.06286028772592545 0.670988142490387 0.13206009566783905 -0.7296129465103149
0.13024452328681946 0.06553765386343002 0.04314427450299263 -0.027929825708270073 -0.45514699816703796 -0.8899781703948975
-0.14624783396720886 -0.08884972333908081 -0.2814854681491852 -0.9534785151481628 -0.06396589428186417 0.294596403837204
0.001102440059185028 -0.11360230296850204 0.22229665517807007 0.6318935751914978 0.0704900473356247 -0.7718430161476135
-0.23263826966285706 -0.040495142340660095 0.024147573858499527 0.9261001944541931 0.19735340774059296 -0.3215431272983551
0.07152733951807022 -0.18756599724292755 0.22062669694423676 -0.19946107268333435 -0.26638156175613403 0.9430038332939148
-0.004162415862083435 0.22148343920707703 -0.058692511171102524 0.40474385023117065 -0.6535736918449402 -0.6395496726036072
-0.1418984830379486 -0.13097821176052094 -0.2640058100223541 0.6547059416770935 0.38271433115005493 -0.6518357396125793
-0.08119077980518341 0.00607569795101881 0.1113879382610321 0.4880993366241455 -0.13144487142562866 -0.8628333210945129
0.01918361335992813 -0.06099936366081238 0.23121067881584167 0.5930457711219788 -0.08369258046150208 -0.8008072376251221
0.017903245985507965 -0.04309863597154617 0.22988922894001007 -0.5053041577339172 0.027529150247573853 0.8625020980834961
-0.16386637091636658 0.11427941918373108 -0.017494458705186844 0.5377537608146667 -0.7462223768234253 -0.3923940062522888
-0.07468999922275543 -0.13293837010860443 0.01093810424208641 -0.3682817816734314 -0.6549888253211975 0.6598167419433594
0.1300525963306427 -0.12771280109882355 0.2982935607433319 -0.0571630634367466 0.07579425722360611 -0.9954836368560791
-0.12258754670619965 0.18353107571601868 -0.05892690643668175 0.7259603142738342 -0.5474708080291748 -0.416241854429245
-0.256955087184906 0.06288915872573853 -0.13379664719104767 0.8209952116012573 -0.22669634222984314 -0.5239996314048767
0.06661055237054825 -0.08294449746608734 0.3004573583602905 -0.49395281076431274 0.3409321904182434 0.799859881401062
-0.22280436754226685 -0.09386786818504333 -0.07708300650119781 -0.8440847396850586 -0.4825802743434906 0.2337457686662674
-0.10787296295166016 -0.1842857152223587 -0.2921889126300812 0.05555857717990875 -0.4047776758670807 0.9127257466316223
-0.08771614730358124 0.008982210420072079 0.10747222602367401 0.4435243308544159 -0.2656005918979645 -0.8560038208961487
-0.17235544323921204 0.014191129244863987 0.08489316701889038 0.2978366017341614 0.40997782349586487 -0.8620971441268921
-0.025498971343040466 -0.1321420520544052 -0.2637096345424652 0.2095404714345932 -0.672429621219635 0.7098811268806458
-0.070269875228405 -0.010697413235902786 0.1319083273410797 0.9121363759040833 -0.2812214195728302 -0.2981974482536316
0.07073237746953964 -0.12728622555732727 0.26352667808532715 -0.5695676207542419 -0.7869468331336975 0.23729175329208374
-0.08854427933692932 -0.11160245537757874 0.01572738215327263 -0.33463558554649353 -0.6749204397201538 0.6576484441757202
-0.2078554630279541 -0.1155279129743576 0.00935884565114975 0.6845940947532654 0.28041109442710876 -0.6728302240371704
-0.17627429962158203 0.1291511356830597 -0.13846276700496674 0.7022062540054321 -0.5610054135322571 -0.438382625579834
-0.024638459086418152 -0.015484586358070374 0.20408442616462708 0.2388399988412857 -0.3685137927532196 -0.8984169363975525
-0.17753386497497559 0.08285191655158997 0.02079116925597191 0.3005441725254059 -0.829714298248291 -0.4703693985939026
-0.15617944300174713 0.15337058901786804 -0.07764434814453125 0.7863389849662781 -0.4246087372303009 -0.44875210523605347
-0.14921699464321136 -0.03864504396915436 0.05484568700194359 -0.5295994281768799 -0.3682742714881897 0.7641324996948242
0.017670921981334686 0.1355528086423874 0.03836299106478691 -0.15053783357143402 0.5094758868217468 0.8472146391868591
-0.1853332817554474 0.019971687346696854 0.07710547745227814 0.4089643061161041 0.2502308189868927 -0.8775720596313477
-0.12672749161720276 0.1333780735731125 0.0036540813744068146 0.5374525785446167 -0.5274425745010376 -0.6579886674880981
-0.026735085994005203 0.08543286472558975 0.07735271751880646 0.20180553197860718 -0.5759530663490295 -0.7921821475028992
-0.09812042117118835 -0.04379620403051376 0.08494546264410019 -0.7301996946334839 -0.45419251918792725 0.5104091763496399
0.1536773443222046 0.08714932203292847 0.03806689754128456 0.13249902427196503 -0.5095047354698181 -0.8502052426338196
-0.23428606986999512 -0.007616937160491943 0.03571971505880356 -0.8168490529060364 -0.06081496924161911 0.5736367702484131
-0.09817483276128769 -0.0214448980987072 0.10231608152389526 0.5275728106498718 0.09217821806669235 -0.8444939851760864
-0.04177100583910942 -0.17537961900234222 -0.30809450149536133 0.13535960018634796 -0.7272118926048279 0.672934353351593
-0.008036583662033081 0.20916014909744263 -0.04245299473404884 0.368927925825119 -0.6671800017356873 -0.6471189856529236
-0.11115023493766785 -0.13528192043304443 -0.24585431814193726 0.2308441698551178 0.6641703248023987 -0.7110476493835449
0.08320242911577225 -0.14188513159751892 0.3120591342449188 -0.008720990270376205 0.43408316373825073 -0.9008305668830872
0.06903267651796341 0.023470662534236908 0.21242934465408325 0.044410135596990585 -0.6946460604667664 -0.7179794907569885
0.12877225875854492 -0.10981204360723495 0.2969720959663391 -0.016898376867175102 0.22014158964157104 0.9753215909004211
-0.179034024477005 0.10940295457839966 -0.08963054418563843 0.8555394411087036 -0.4794867932796478 -0.19530653953552246
0.050236426293849945 -0.10554414242506027 0.30970168113708496 0.858511745929718 0.03277677297592163 -0.5117453932762146
-0.2383606731891632 0.001979823224246502 -0.043966297060251236 0.986545979976654 -0.1202455535531044 -0.11076103150844574
0.033327385783195496 0.0053558917716145515 0.22379210591316223 0.27044084668159485 -0.5295987725257874 -0.8039819002151489
-0.014731425791978836 -0.21649719774723053 0.15742775797843933 -0.30127429962158203 -0.20479272305965424 0.931286096572876
-0.21356943249702454 -0.10945304483175278 -0.01229851320385933 -0.9386353492736816 -0.20866334438323975 0.27463290095329285
0.0710175558924675 0.1381981521844864 0.037829313427209854 -0.27570998668670654 -0.40984147787094116 -0.8694906234741211
-0.24088400602340698 -0.02549034170806408 -0.12156039476394653 -0.9684190154075623 -0.2030571848154068 0.14468012750148773
-0.1775330901145935 0.042664531618356705 0.08095098286867142 0.46847718954086304 -0.35840895771980286 -0.8075098395347595
-0.07881493866443634 -0.04334481433033943 0.17323391139507294 0.9102272391319275 -0.3320431709289551 -0.24745437502861023
-0.17315112054347992 0.10950475931167603 -0.022781606763601303 0.6243424415588379 -0.7492750287055969 -0.22086931765079498
-0.07859871536493301 -0.0301644429564476 0.11406322568655014 -0.7031944394111633 0.07776348292827606 0.7067322731018066
-0.09786304086446762 -0.11639462411403656 0.010420866310596466 -0.12691277265548706 -0.6130030155181885 0.7798207998275757
-0.2201312780380249 -0.08609113097190857 -0.07576516270637512 -0.8485779762268066 -0.48970574140548706 0.20025905966758728
0.06691368669271469 -0.030267827212810516 0.25819286704063416 0.34544286131858826 -0.5277199149131775 -0.7760031819343567
0.032187774777412415 0.08847860246896744 0.06648621708154678 -0.21559807658195496 -0.5120322108268738 -0.8314688801765442
-0.22646397352218628 0.015139651484787464 0.03957602381706238 -0.8278149366378784 0.05141115561127663 0.5586405992507935
-0.07082933932542801 -0.16903871297836304 -0.2890891432762146 0.26454317569732666 -0.6943660378456116 0.6692328453063965
-0.1546931117773056 -0.16042082011699677 -0.28414881229400635 0.4575940668582916 0.009031834080815315 -0.8891153335571289
0.05380804091691971 0.08345638960599899 0.061197035014629364 -0.1725156009197235 -0.5585260391235352 -0.8113489151000977
-0.08049019426107407 -0.022155309095978737 0.15798918902873993 0.8670037984848022 -0.4711068272590637 -0.16236622631549835
0.05915521830320358 -0.10095768421888351 0.31478044390678406 0.4856712818145752 -0.2821696400642395 -0.8273473978042603
-0.05122886225581169 -0.07899226248264313 0.2177070826292038 -0.2820853590965271 -0.1338784545660019 0.9500023722648621
0.010074041783809662 -0.21000319719314575 0.17175297439098358 0.48278647661209106 0.090545155107975 -0.8710446357727051
-0.21664944291114807 0.09005924314260483 -0.11105047166347504 0.5999428629875183 -0.5176116824150085 -0.6100382208824158
-0.052003320306539536 -0.13407601416110992 0.024265596643090248 -0.6312740445137024 -0.6762998700141907 0.3796202838420868
-0.2475821077823639 0.037699293345212936 -0.11391448974609375 0.8370744585990906 -0.08615562319755554 -0.5402624607086182
0.019239068031311035 -0.10736505687236786 0.24630999565124512 -0.5759150981903076 -0.35354843735694885 0.7371060848236084
-0.16028283536434174 -0.1296812742948532 -0.28840476274490356 -0.5932323932647705 -0.0805455818772316 0.8009917140007019
-0.06267504394054413 0.17134028673171997 -0.009850632399320602 0.1344556212425232 -0.8002612590789795 -0.5843831300735474
-0.10338157415390015 0.0071884458884596825 0.09835174679756165 0.43872183561325073 -0.04576461762189865 -0.8974568843841553
0.01591658592224121 0.046274781227111816 0.14888015389442444 0.2298445999622345 -0.9346945881843567 -0.2711411714553833
-0.024683132767677307 -0.10211696475744247 0.20682336390018463 0.3091803193092346 0.20031537115573883 -0.9296673536300659
0.07939396053552628 -0.08863844722509384 0.30812838673591614 0.36472469568252563 -0.2058844119310379 -0.9080680012702942
-0.13162679970264435 -0.07002437859773636 0.052565690129995346 -0.047897692769765854 -0.37584081292152405 0.925445556640625
0.08449404686689377 -0.11668526381254196 0.3120115101337433 -0.05884001404047012 -0.12673437595367432 0.9901899695396423
-0.11081410944461823 0.13520021736621857 0.01291891559958458 0.4870656132698059 -0.5075763463973999 -0.710727334022522
-0.02322544902563095 0.2116803079843521 -0.0695478618144989 0.5242944955825806 -0.6436232924461365 -0.5575520992279053
-0.06983019411563873 -0.12533380091190338 0.18111461400985718 0.7298762798309326 -0.003108685603365302 -0.6835721731185913
0.06170504540205002 -0.048513609915971756 0.2693106234073639 0.5637524127960205 -0.6952467560768127 -0.4458868205547333
0.012927532196044922 0.06776644289493561 0.10115326941013336 0.01731742173433304 -0.8037042617797852 -0.5947768092155457
