ply
format ascii 1.0
element vertex 398
property float x
property float y
property float z
property float nx
property float ny
property float nz
end_header
0.21871818602085114 -0.0920717716217041 0.08810727298259735 -0.8036192059516907 0.4243961572647095 -0.4172336459159851
0.19486938416957855 0.13138447701931 -0.1029815673828125 -0.5553867220878601 -0.7509724497795105 0.35719192028045654
0.16787421703338623 0.10240142792463303 -0.006293661892414093 -0.8538368940353394 -0.48907411098480225 -0.17823909223079681
0.19368302822113037 -0.09362275898456573 0.172662153840065 -0.9103042483329773 0.20391975343227386 -0.36022618412971497
0.16121593117713928 -0.017600448802113533 -0.27688074111938477 -0.17909099161624908 -0.05887620523571968 0.982069194316864
0.09504752606153488 0.1508050411939621 -0.16796495020389557 0.12726585566997528 0.6709249019622803 -0.730522632598877
0.1774074286222458 0.08686257153749466 0.004495628178119659 0.7860327363014221 0.6032503247261047 0.13506148755550385
0.20757217705249786 0.07917451858520508 -0.07691878080368042 0.9890974760055542 -0.1348143368959427 0.05925566330552101
0.20757217705249786 0.07917451858520508 -0.07691878080368042 0.9890974760055542 -0.1348143368959427 0.05925566330552101
0.19216664135456085 -0.06664364784955978 0.13801999390125275 -0.9346740245819092 -0.2219708114862442 -0.2776930034160614
0.035926930606365204 -0.09457093477249146 -0.2795233130455017 0.3994513154029846 -0.129426047205925 -0.907572329044342
0.19406819343566895 -0.14832201600074768 0.14311443269252777 -0.9131899476051331 0.40519577264785767 0.0435945987701416
0.15066488087177277 -0.006752965971827507 0.17482346296310425 0.41245853900909424 0.9031272530555725 0.11932823061943054
0.17755961418151855 -0.09758896380662918 0.1967478096485138 0.7525860667228699 -0.20466327667236328 0.6258810758590698
0.17447629570960999 -0.046960800886154175 0.19753497838974 0.8462765216827393 0.41714560985565186 0.3313692510128021
0.20487888157367706 0.0753994733095169 -0.10475112497806549 -0.9634904265403748 0.21027565002441406 0.16574187576770782
0.03310044854879379 0.15919449925422668 -0.27763810753822327 0.3640685975551605 0.8301769495010376 -0.42220890522003174
0.13335856795310974 0.1696266084909439 -0.012071723118424416 -0.611118733882904 -0.7563987374305725 -0.23322701454162598
0.24064156413078308 -0.06586576253175735 0.059472572058439255 -0.9355190396308899 0.24549449980258942 -0.25404059886932373
0.14258721470832825 -0.003358328714966774 0.1360204666852951 -0.6400466561317444 -0.748030960559845 -0.17547062039375305
0.1740729808807373 -0.08770153671503067 0.20556358993053436 -0.8123717308044434 0.22862927615642548 -0.5364519953727722
0.1469644159078598 -0.14804577827453613 0.23319722712039948 -0.9663683176040649 0.18713144958019257 0.17639176547527313
-0.04947720468044281 -0.19070911407470703 -0.2856753170490265 -0.5005767345428467 0.5950234532356262 0.6287845969200134
0.08861543983221054 0.19982287287712097 -0.05827924609184265 -0.34369876980781555 -0.9331777691841125 -0.10512132197618484
0.1827697455883026 0.13048845529556274 -0.07194364815950394 -0.571538507938385 -0.756913959980011 -0.3168991804122925
0.15221799910068512 0.12380842864513397 -0.03649480268359184 0.7450783252716064 0.6112860441207886 0.26681020855903625
0.1877865344285965 -0.05811264365911484 0.13728675246238708 -0.7724987268447876 -0.5383233428001404 -0.3368288278579712
0.05306432396173477 0.19978292286396027 -0.14038406312465668 0.2888079285621643 0.9298135638237 -0.22811569273471832
0.20000877976417542 -0.08499237895011902 0.12999951839447021 -0.9060432314872742 0.020843535661697388 -0.4226715564727783
0.1832640916109085 -0.06407658755779266 0.1990060955286026 0.7133952975273132 0.3105100691318512 0.6282122731208801
0.009696334600448608 0.20572920143604279 -0.14452409744262695 0.14310596883296967 0.8031270503997803 -0.5783663392066956
0.05881068855524063 0.041255734860897064 0.16456805169582367 0.7709510326385498 0.6321954727172852 -0.07722251862287521
0.24233126640319824 -0.02444416843354702 0.061331141740083694 0.9767632484436035 0.07386211305856705 0.20119121670722961
0.1679186373949051 0.1383652240037918 -0.13831987977027893 0.4566360414028168 0.5805096626281738 -0.6741603016853333
0.173662006855011 0.03697250038385391 -0.27702653408050537 -0.10624641925096512 0.18020819127559662 0.9778735637664795
0.08477604389190674 0.1799330860376358 -0.14199382066726685 0.37100353837013245 0.832954466342926 -0.41054022312164307
0.19654671847820282 -0.07517460733652115 0.1387532353401184 -0.9321621060371399 -0.3507268726825714 -0.08980216085910797
0.16052253544330597 -0.10283590108156204 0.2113913595676422 0.766755998134613 -0.296719491481781 0.5692475438117981
0.20347082614898682 -0.09481009095907211 0.1212458610534668 -0.8655521869659424 0.43905600905418396 -0.2409340739250183
0.11596153676509857 -0.07200944423675537 0.2755199670791626 -0.7716130614280701 -0.39697837829589844 -0.49701249599456787
0.18903259932994843 0.03090454451739788 -0.09468569606542587 -0.9185213446617126 -0.1413048803806305 0.36925801634788513
0.11116540431976318 0.16742072999477386 -0.1536879986524582 -0.2323264628648758 -0.705375611782074 0.669678807258606
0.009984076023101807 0.16212156414985657 -0.27514147758483887 0.3156311810016632 0.9158134460449219 -0.24832013249397278
0.14980198442935944 -0.11411940306425095 0.24611212313175201 -0.8851454257965088 -0.4419488310813904 0.14559818804264069
0.17665940523147583 -0.03483390808105469 -0.1011597216129303 -0.8180832862854004 0.47979697585105896 0.3170718848705292
0.1977931559085846 0.05639151483774185 -0.07137976586818695 -0.9445037245750427 0.3047037124633789 -0.12275359034538269
0.07611258327960968 0.1968066692352295 -0.14344412088394165 0.38989490270614624 0.8003284335136414 -0.45547375082969666
0.1915384978055954 0.01996641606092453 -0.1126529723405838 0.9524756669998169 0.1858336478471756 -0.2413627952337265
0.154190331697464 0.036670051515102386 0.08660148084163666 0.2688918113708496 0.7192918062210083 0.6405594944953918
0.12462545931339264 0.005509449169039726 0.18788641691207886 -0.33253800868988037 -0.943062961101532 -0.007124011870473623
0.23379391431808472 -0.046447061002254486 0.07678665220737457 -0.8678327798843384 0.09774468839168549 -0.48714709281921387
0.2019759714603424 0.005695093423128128 -0.09251892566680908 -0.8251538872718811 -0.2569144368171692 0.5031062960624695
0.17994441092014313 -0.0397639125585556 0.14530721306800842 -0.7092397212982178 -0.6335625648498535 -0.3091561496257782
0.07038779556751251 -0.0015400126576423645 -0.2973873019218445 0.8464630842208862 0.288971871137619 0.44720858335494995
0.19460396468639374 -0.09233193099498749 0.1821790486574173 -0.7560215592384338 0.04441211000084877 -0.6530382037162781
0.18311047554016113 -0.010468905791640282 0.1193321943283081 0.4681881070137024 0.4937814474105835 0.7327890396118164
0.036471523344516754 0.2077569216489792 -0.10973767936229706 0.26064983010292053 0.9644901156425476 -0.042668409645557404
0.1297357976436615 -0.027329662814736366 0.2534189820289612 0.7895733118057251 0.42275649309158325 0.4448043406009674
0.2022600620985031 -0.12575051188468933 0.12728455662727356 0.9254000782966614 0.34803473949432373 -0.1500217765569687
-0.007387056946754456 -0.14297713339328766 -0.2873426675796509 -0.3915891647338867 0.6126150488853455 0.6865571141242981
0.1409105360507965 -0.0968017578125 0.24462364614009857 -0.9532557725906372 -0.2581469714641571 -0.1570463329553604
-0.007387056946754456 -0.14297713339328766 -0.2873426675796509 -0.3915891647338867 0.6126150488853455 0.6865571141242981
0.17902636528015137 -0.04105067998170853 0.13582025468349457 -0.6141095757484436 -0.5523255467414856 -0.5637427568435669
0.15561731159687042 -0.006062693893909454 -0.1417502909898758 -0.7579675912857056 0.30311933159828186 0.577584445476532
0.23119646310806274 0.003300238400697708 0.07785390317440033 -0.6900316476821899 -0.29878929257392883 -0.659227728843689
0.1947811245918274 -0.16209712624549866 0.10563574731349945 0.9484358429908752 -0.19799789786338806 -0.2475203275680542
0.2030833512544632 0.07288277894258499 -0.12330600619316101 -0.8016136288642883 0.11893603950738907 0.585892379283905
0.1285051554441452 -0.0695192813873291 0.252020001411438 -0.821374237537384 -0.3000546097755432 -0.4850892722606659
0.19947010278701782 0.01663317158818245 -0.07455161213874817 -0.8851454257965088 -0.4419488310813904 0.14559818804264069
0.22256752848625183 0.02010657638311386 0.07640938460826874 0.46792566776275635 0.5536776781082153 0.6888298392295837
0.1551627218723297 -0.15149110555648804 0.2725798785686493 0.9304128885269165 -0.15869969129562378 -0.3303728997707367
0.09567087143659592 0.1952037364244461 -0.029407553374767303 0.49168482422828674 0.8249057531356812 0.27888453006744385
0.20154988765716553 -0.11202932149171829 0.1646164506673813 0.9742124080657959 0.18113858997821808 0.13453242182731628
0.030532710254192352 -0.08719533681869507 -0.2899288833141327 -0.6038917303085327 0.30284932255744934 0.7372904419898987
0.19047659635543823 0.037920866161584854 0.06953516602516174 0.3435284495353699 0.7583450078964233 0.5539864897727966
0.0037678778171539307 0.16807904839515686 -0.29484862089157104 -0.38082486391067505 -0.7332939505577087 0.5632516741752625
0.1559797078371048 -0.014020005241036415 0.18507590889930725 0.8851454257965088 0.4419488310813904 -0.14559818804264069
0.18746531009674072 0.013107199221849442 -0.2655518352985382 -0.10200744867324829 0.13927681744098663 0.9849854707717896
0.25251758098602295 -0.010946424677968025 0.05691279098391533 -0.8486282825469971 0.36719727516174316 -0.38078364729881287
0.2124134600162506 -0.008576279506087303 -0.07238483428955078 -0.9333670139312744 0.26292118430137634 0.24433255195617676
0.12880761921405792 -0.028630631044507027 0.24382732808589935 0.6979319453239441 0.5054984092712402 0.5073089003562927
0.14944526553153992 -0.00014753267168998718 -0.16131752729415894 -0.8885871171951294 0.40863269567489624 0.20840388536453247
0.17648537456989288 0.12168002128601074 -0.13688577711582184 -0.664326548576355 -0.2867264747619629 0.6902594566345215
0.2127533257007599 0.07209023088216782 -0.06692427396774292 -0.9280642867088318 0.1976080685853958 -0.31567031145095825
0.186221644282341 -0.01156805269420147 -0.10655100643634796 -0.9493600130081177 -0.2879025936126709 0.12580811977386475
0.20809900760650635 -0.00017311424016952515 -0.07310709357261658 0.8851454257965088 0.4419488310813904 -0.14559818804264069
0.12277635186910629 0.0029176566749811172 0.16877785325050354 0.5141162872314453 0.83765709400177 0.18443183600902557
0.16145069897174835 -0.10153492540121078 0.22098304331302643 -0.7803385257720947 0.3449699282646179 -0.5216009616851807
0.17309975624084473 0.13128100335597992 -0.12832537293434143 -0.8851454257965088 -0.4419488310813904 0.14559818804264069
0.17240746319293976 0.1446569710969925 -0.09193265438079834 0.8851454257965088 0.4419488310813904 -0.14559818804264069
0.10906705260276794 0.05267447233200073 0.10232095420360565 0.4658886194229126 0.6212612986564636 0.6300652027130127
0.2085728943347931 0.1076917052268982 -0.09158982336521149 -0.9542059898376465 -0.18200470507144928 0.23741371929645538
0.18747329711914062 -0.01896623708307743 0.12006254494190216 0.5148586630821228 0.4509119987487793 0.7291082739830017
0.14785942435264587 0.10876178741455078 0.025480050593614578 0.8851454257965088 0.4419488310813904 -0.14559818804264069
0.14456109702587128 -0.06001805514097214 -0.13128042221069336 0.9652714133262634 -0.11044438928365707 -0.23675552010536194
0.25318706035614014 -0.002491503953933716 -0.2621297836303711 -0.09284846484661102 0.053782954812049866 0.9942265748977661
0.1441764235496521 0.13968618214130402 -0.1445031464099884 -0.8851454257965088 -0.4419488310813904 0.14559818804264069
0.17755961418151855 -0.09758896380662918 0.1967478096485138 0.7525860667228699 -0.20466327667236328 0.6258810758590698
0.20318098366260529 -0.12445969134569168 0.13680139183998108 0.8851454257965088 0.4419488310813904 -0.14559818804264069
0.23337100446224213 -0.0005509611219167709 -0.26939278841018677 -0.09981934726238251 0.09032908082008362 0.9908969402313232
0.23892107605934143 -0.014773519709706306 0.06995368003845215 -0.8630471229553223 0.08144493401050568 -0.4985141456127167
0.14831086993217468 -0.11344341188669205 -0.27065151929855347 -0.3348703682422638 -0.09795162081718445 0.9371591210365295
0.23220781981945038 -0.08807045966386795 0.07494543492794037 0.8763294219970703 -0.20307791233062744 0.43681347370147705
0.16002348065376282 0.02425314113497734 -0.15708771347999573 0.9026045203208923 -0.2245793342590332 -0.3672454357147217
0.1742105334997177 -0.0819648951292038 -0.2591088116168976 0.1685541719198227 -0.17491818964481354 -0.9700480103492737
0.05931343138217926 0.13571108877658844 -0.29687705636024475 0.24268946051597595 0.9228661060333252 -0.2990318238735199
0.2310144007205963 0.030934762209653854 0.05331306532025337 -0.512066662311554 -0.789535403251648 -0.33826276659965515
0.15215881168842316 0.07885368168354034 -0.28062623739242554 -0.2421775609254837 -0.033264048397541046 0.96966153383255
0.1469523012638092 -0.03192488104104996 -0.1656143218278885 0.9802113175392151 0.1965082287788391 -0.023879962041974068
0.22220681607723236 0.03299391269683838 0.006018843501806259 0.8389002680778503 0.5137397646903992 -0.17977125942707062
0.15379425883293152 -0.008617954328656197 -0.16058948636054993 -0.9244611859321594 0.3508049547672272 0.1493569165468216
0.18962261080741882 -0.055539123713970184 0.15626060962677002 0.6827583312988281 0.7290117740631104 0.04881562292575836
0.15445014834403992 -0.08168265223503113 0.23868371546268463 0.7706013321876526 0.07421635836362839 0.6329814195632935
0.20218294858932495 0.02043561264872551 -0.0465172715485096 -0.931010901927948 -0.18568265438079834 0.31423038244247437
0.1525973677635193 -0.11020127683877945 0.27499935030937195 0.8939335942268372 0.4274541139602661 0.1347804069519043
0.1171661913394928 -0.015283199027180672 0.21356962621212006 0.4012656509876251 0.7706221342086792 0.4951033890247345
0.14894120395183563 -0.06854905933141708 -0.1305471807718277 0.9652714133262634 -0.11044438928365707 -0.23675552010536194
0.11703158915042877 -0.04093076288700104 0.26904550194740295 -0.8972962498664856 -0.08399812132120132 -0.4333634376525879
0.06957537680864334 -0.04210226982831955 -0.2913041412830353 0.31577619910240173 -0.14801397919654846 -0.9372177720069885
0.14721986651420593 -0.10284852236509323 0.26462605595588684 0.8851454257965088 0.4419488310813904 -0.14559818804264069
0.12718753516674042 -0.005673887208104134 0.16951631009578705 0.3876812756061554 0.9190486073493958 0.07108351588249207
0.08065209537744522 0.20316945016384125 -0.0965331643819809 0.2822909355163574 0.9199790358543396 -0.27193835377693176
0.17650315165519714 0.08559509366750717 -0.004849143326282501 0.8851454257965088 0.4419488310813904 -0.14559818804264069
0.18712954223155975 -0.010295497253537178 -0.09716881811618805 0.8912410736083984 -0.22763165831565857 -0.39226678013801575
0.1758822798728943 0.04137342423200607 -0.14285412430763245 -0.8912869095802307 -0.05441504716873169 0.4501628577709198
0.20809900760650635 -0.00017311424016952515 -0.07310709357261658 0.8851454257965088 0.4419488310813904 -0.14559818804264069
0.19824405014514923 0.12181451916694641 -0.11151432991027832 -0.6187556385993958 -0.43077635765075684 0.6569422483444214
0.1254269778728485 0.17295986413955688 -0.05017311871051788 -0.5713096261024475 -0.8016690015792847 -0.17587552964687347
0.16129454970359802 -0.021287107840180397 0.19532829523086548 0.7056338787078857 0.666399359703064 0.24081675708293915
0.17848636209964752 0.13883107900619507 -0.07266070693731308 0.7081912159919739 0.6960591673851013 0.11818107217550278
0.10964025557041168 0.12193159013986588 -0.3010377287864685 0.67561936378479 0.724461019039154 -0.13672861456871033
0.1409834325313568 0.16401922702789307 -0.09005393087863922 -0.35995960235595703 -0.9218233227729797 0.14377360045909882
0.24915160238742828 -0.04378541558980942 0.04408608749508858 -0.9925222992897034 0.09391029924154282 -0.07797656208276749
0.20251362025737762 0.11349879950284958 -0.11079959571361542 -0.759318470954895 -0.17676082253456116 0.6262515783309937
0.19619666039943695 0.06855803728103638 -0.04415515810251236 -0.8851454257965088 -0.4419488310813904 0.14559818804264069
0.1958387941122055 -0.06149660050868988 0.1759677231311798 -0.6986370086669922 -0.6580129265785217 -0.28093641996383667
0.0990947037935257 0.18549439311027527 -0.03806459531188011 -0.6101191639900208 -0.7424502372741699 -0.2766264081001282
0.18172189593315125 0.07845940440893173 0.005217887461185455 -0.8851454257965088 -0.4419488310813904 0.14559818804264069
0.17665940523147583 -0.03483390808105469 -0.1011597216129303 -0.8180832862854004 0.47979697585105896 0.3170718848705292
0.1681576669216156 0.059447191655635834 -0.1349538266658783 -0.8860061168670654 -0.21875448524951935 0.40882712602615356
0.18988695740699768 0.05971408635377884 -0.10935914516448975 -0.7708191871643066 0.5378358960151672 0.34142401814460754
0.22220681607723236 0.03299391269683838 0.006018843501806259 0.8389002680778503 0.5137397646903992 -0.17977125942707062
0.0311942920088768 0.2149725705385208 -0.11991754174232483 0.42869991064071655 0.8861573934555054 0.1759020984172821
0.1775885969400406 0.1375727355480194 -0.08193816244602203 0.7239555716514587 0.6890631318092346 0.03286948427557945
0.1478991061449051 -0.14673566818237305 0.24285630881786346 0.9527254104614258 -0.2651101052761078 -0.1484280824661255
0.13807299733161926 0.14553558826446533 -0.16385281085968018 -0.8851454257965088 -0.4419488310813904 0.14559818804264069
0.10796219110488892 0.19183190166950226 -0.09906379878520966 -0.5333007574081421 -0.8446632027626038 0.04619952663779259
0.19466526806354523 0.05324994772672653 0.0073846615850925446 -0.5618808269500732 -0.8252143263816833 0.057543836534023285
0.20092865824699402 0.12557737529277802 -0.08377178758382797 0.7519827485084534 0.644565761089325 0.13804703950881958
0.2568957209587097 0.019191259518265724 0.04086404666304588 -0.7528688907623291 -0.6304423809051514 -0.18902602791786194
-0.007781609892845154 0.15379290282726288 -0.30111047625541687 0.2292407751083374 0.8483416438102722 -0.4772474765777588
0.1209055632352829 0.16662245988845825 -0.09689702093601227 -0.6212066411972046 -0.7728516459465027 0.12962506711483002
0.08337580412626266 0.20698711276054382 -0.06838658452033997 0.25728657841682434 0.9654644131660461 0.04101359099149704
0.2388257533311844 -0.06841087341308594 0.040708187967538834 -0.9333414435386658 0.08729224652051926 -0.3482150435447693
0.18903259932994843 0.03090454451739788 -0.09468569606542587 -0.9185213446617126 -0.1413048803806305 0.36925801634788513
0.011610031127929688 0.14973032474517822 -0.3028690218925476 0.2786317467689514 0.7907811403274536 -0.5450041890144348
0.1926497220993042 0.035974469035863876 -0.05730655789375305 0.8454424738883972 -0.04889657348394394 -0.5318233966827393
0.2030872255563736 0.021703094244003296 -0.03717247024178505 0.915132999420166 -0.10024702548980713 -0.3904896080493927
0.23850800096988678 -0.0017744898796081543 -0.00041624531149864197 -0.6414264440536499 0.36191362142562866 0.676454484462738
0.07478171586990356 -0.010097930207848549 -0.2966517508029938 -0.8361217975616455 -0.1687798649072647 -0.5219326615333557
-0.0166042298078537 -0.1671939194202423 -0.28274005651474 -0.5722321271896362 0.6148159503936768 0.5427261590957642
0.2414269745349884 -0.025711646303534508 0.051986370235681534 -0.9810603260993958 -0.06809968501329422 -0.18133679032325745
0.17171348631381989 -0.05083326995372772 0.16898436844348907 0.667312741279602 0.7283051013946533 0.15577366948127747
0.2062249332666397 -0.09094980359077454 0.14970669150352478 -0.991992712020874 0.11086390912532806 0.06049495190382004
0.18747329711914062 -0.01896623708307743 0.12006254494190216 0.5148586630821228 0.4509119987487793 0.7291082739830017
0.026073157787322998 -0.07850957661867142 -0.29067543148994446 -0.794282853603363 0.37366434931755066 0.47905081510543823
0.18603633344173431 0.07005628943443298 0.005940143018960953 -0.8851454257965088 -0.4419488310813904 0.14559818804264069
0.18759630620479584 -0.15739329159259796 0.07623450458049774 0.9728374481201172 -0.008864641189575195 -0.2313195765018463
0.09504752606153488 0.1508050411939621 -0.16796495020389557 0.12726585566997528 0.6709249019622803 -0.730522632598877
0.12271413207054138 0.16915741562843323 -0.07820745557546616 0.7445812821388245 0.6522985696792603 -0.14179301261901855
0.08044431358575821 0.18836987018585205 -0.14271897077560425 -0.36381101608276367 -0.828059732913971 0.4265660345554352
0.15405836701393127 -0.03657715022563934 -0.1365353763103485 -0.9319160580635071 0.19631481170654297 0.3049475848674774
0.15702225267887115 -0.09290976077318192 0.2202417105436325 -0.8027210831642151 0.3273017704486847 -0.4985101521015167
0.05306432396173477 0.19978292286396027 -0.14038406312465668 0.2888079285621643 0.9298135638237 -0.22811569273471832
0.14504384994506836 -0.02496904321014881 0.2195030003786087 0.4386095404624939 0.6951383948326111 0.5695649981498718
0.009696334600448608 0.20572920143604279 -0.14452409744262695 0.14310596883296967 0.8031270503997803 -0.5783663392066956
0.18684762716293335 0.10751155018806458 -0.11689679324626923 -0.6279696822166443 -0.26633602380752563 0.7312449216842651
0.11796338856220245 -0.03962472081184387 0.2786746323108673 0.9087642431259155 0.0964355319738388 0.4060145616531372
0.17948290705680847 0.07393970340490341 -0.12942872941493988 -0.47336480021476746 0.10605261474847794 0.8744590282440186
0.17042598128318787 0.06785037368535995 0.0384879894554615 0.5541202425956726 0.7148061990737915 0.42661789059638977
0.25081679224967957 0.02501719631254673 0.021592091768980026 0.6331942677497864 0.7650075554847717 -0.11759483814239502
0.07917563617229462 -0.018655849620699883 -0.29591619968414307 0.27063608169555664 -0.36841702461242676 -0.8893958926200867
0.18746531009674072 0.013107199221849442 -0.2655518352985382 -0.10200744867324829 0.13927681744098663 0.9849854707717896
0.20928740501403809 -0.06145298480987549 0.12371431291103363 0.7770957946777344 0.031989775598049164 0.6285688281059265
0.06957537680864334 -0.04210226982831955 -0.2913041412830353 0.31577619910240173 -0.14801397919654846 -0.9372177720069885
0.12370090186595917 0.004213552922010422 0.1783321350812912 0.4408859312534332 0.8973925709724426 0.017499620094895363
0.23037007451057434 -0.03673771768808365 0.08544370532035828 0.8636857271194458 0.09620382636785507 0.4947642683982849
0.08032075315713882 0.011844689026474953 0.20606137812137604 -0.47548168897628784 -0.841006338596344 -0.2581191658973694
0.19499275088310242 -0.14702613651752472 0.15266865491867065 -0.8695777058601379 0.485881507396698 -0.08805608004331589
0.1125858724117279 -0.03227197378873825 0.2683012783527374 0.9209440350532532 0.11744324117898941 0.37157654762268066
0.1306457221508026 0.16582415997982025 -0.04010608792304993 -0.5900277495384216 -0.7667917013168335 -0.2527802586555481
0.10891186445951462 -0.052017830312252045 0.2933449149131775 -0.9347367286682129 -0.15338152647018433 -0.32053300738334656
0.12385708838701248 0.14001421630382538 -0.2670361399650574 0.13184647262096405 0.6479523181915283 -0.7501828670501709
0.17066353559494019 0.04850911349058151 -0.1529211401939392 -0.9618010520935059 -0.008750221692025661 0.27360954880714417
0.19638806581497192 0.03480565920472145 -0.2795884609222412 -0.1392306238412857 0.22374381124973297 0.9646520018577576
0.2000337839126587 0.12432309240102768 -0.09301930665969849 -0.8851454257965088 -0.4419488310813904 0.14559818804264069
0.18898557126522064 0.05845066159963608 -0.11867399513721466 -0.7116135954856873 0.4158439636230469 0.566286027431488
0.20649738609790802 0.012032496742904186 -0.0457950159907341 -0.8851454257965088 -0.4419488310813904 0.14559818804264069
0.05306432396173477 0.19978292286396027 -0.14038406312465668 0.2888079285621643 0.9298135638237 -0.22811569273471832
0.199497252702713 -0.12962298095226288 0.09873396158218384 -0.9621052145957947 0.012874004431068897 0.2723744213581085
0.16731956601142883 -0.04227535426616669 0.16824880242347717 -0.8580871224403381 -0.5110774040222168 -0.049864817410707474
0.2533046305179596 0.014157871715724468 0.0037542730569839478 -0.6804436445236206 -0.1263548731803894 0.7218246459960938
0.20169873535633087 0.09963477402925491 -0.05052056908607483 0.7730767726898193 0.07860523462295532 0.6294231414794922
-0.06866343319416046 -0.1987370103597641 -0.2925386130809784 -0.5013356804847717 0.6581171154975891 0.5617334246635437
0.20033252239227295 -0.02080630697309971 -0.04880755394697189 -0.8368579149246216 0.5079207420349121 0.2041698694229126
0.1994246244430542 -0.022078862413764 -0.058189742267131805 -0.8842930793762207 0.4309074580669403 0.1798458695411682
0.23220781981945038 -0.08807045966386795 0.07494543492794037 0.8763294219970703 -0.20307791233062744 0.43681347370147705
0.14695151150226593 0.10748923569917679 0.016097862273454666 -0.815675675868988 -0.48604103922843933 -0.3137472867965698
0.19619666039943695 0.06855803728103638 -0.04415515810251236 -0.8851454257965088 -0.4419488310813904 0.14559818804264069
0.19807691872119904 -0.10218062251806259 0.1733977198600769 -0.906193196773529 0.1001688614487648 -0.4108286499977112
0.09294717013835907 0.19138608872890472 -0.05755409598350525 0.46041208505630493 0.8789052367210388 0.12468466907739639
0.1458853930234909 0.1361752301454544 -0.278915673494339 -0.2781940996646881 -0.303617388010025 0.9112762808799744
0.23621639609336853 0.02382197603583336 0.06334784626960754 -0.5783370137214661 -0.6505278944969177 -0.4922802448272705
0.1478991061449051 -0.14673566818237305 0.24285630881786346 0.9527254104614258 -0.2651101052761078 -0.1484280824661255
0.2473430335521698 -0.04632037878036499 0.025396525859832764 -0.9677270650863647 0.1375332474708557 0.2111610621213913
0.1810462474822998 -0.10747639089822769 0.18793198466300964 0.738632321357727 -0.04753347113728523 0.6724305152893066
0.14793838560581207 -0.11673148721456528 0.22685392200946808 -0.9506552815437317 -0.03925306349992752 -0.30775579810142517
0.14708685874938965 0.15816980600357056 -0.07070426642894745 -0.4043808877468109 -0.9044424891471863 -0.13586769998073578
0.16460098326206207 -0.06630163639783859 -0.26998448371887207 0.2576700448989868 -0.2950989305973053 -0.9200667142868042
0.1926497220993042 0.035974469035863876 -0.05730655789375305 0.8454424738883972 -0.04889657348394394 -0.5318233966827393
0.15312229096889496 0.12507590651512146 -0.027150001376867294 -0.8039942979812622 -0.5840211510658264 -0.11185909062623978
0.0916237011551857 0.16051438450813293 -0.15930791199207306 0.3252778947353363 0.5891802906990051 -0.7396356463432312
0.1670997440814972 -0.06792670488357544 0.22319523990154266 0.7323896884918213 0.12620140612125397 0.669087827205658
0.06783577054738998 0.009599492885172367 -0.27908915281295776 0.9309996366500854 0.12163880467414856 0.3441564738750458
0.15314394235610962 -0.037858836352825165 -0.14598491787910461 0.9663069844245911 0.04025140777230263 -0.25422558188438416
0.15340569615364075 0.08212173730134964 -0.1558101773262024 0.7926100492477417 0.26299333572387695 -0.5500943660736084
0.14370591938495636 -0.0928836315870285 0.2735109031200409 0.8347765803337097 0.5350815653800964 0.12975293397903442
0.24233126640319824 -0.02444416843354702 0.061331141740083694 0.9767632484436035 0.07386211305856705 0.20119121670722961
0.23420734703540802 0.006601765751838684 -0.0011361949145793915 -0.4644375443458557 0.09738293290138245 0.8802353739738464
0.1755988597869873 0.08432760834693909 -0.014193940907716751 -0.779503345489502 -0.6202197670936584 -0.0877610296010971
0.20328882336616516 0.08751709759235382 -0.07763583213090897 -0.9957752823829651 -0.04458203166723251 -0.08027435094118118
0.01926983892917633 -0.11370103806257248 -0.30471062660217285 0.7587133646011353 -0.1912539303302765 -0.6227165460586548
0.0841526910662651 0.1355343908071518 -0.2805512249469757 0.3106327950954437 0.9009620547294617 -0.3029434084892273
0.16087782382965088 -0.013255482539534569 -0.13160263001918793 -0.6288648247718811 0.3025158643722534 0.716249406337738
0.1501687467098236 0.12783265113830566 -0.27819862961769104 -0.2085583359003067 -0.27557599544525146 0.9383822679519653
0.17133387923240662 0.06912293285131454 0.047870177775621414 0.5050382018089294 0.7349565625190735 0.4525209963321686
0.1810462474822998 -0.10747639089822769 0.18793198466300964 0.738632321357727 -0.04753347113728523 0.6724305152893066
-0.060516357421875 -0.1756150871515274 -0.3069700598716736 -0.49126651883125305 0.6507337093353271 0.5789670348167419
0.1962350457906723 -0.10476226359605789 0.1543639898300171 -0.9915592670440674 -0.07862234860658646 -0.10309570282697678
0.22921162843704224 0.02840791642665863 0.03468335047364235 -0.4124428629875183 -0.9101423621177673 -0.03913894295692444
0.08324479311704636 0.1342618316411972 -0.289933443069458 0.2960686981678009 0.9188137054443359 -0.2610071897506714
0.020639821887016296 0.22940385341644287 -0.14027729630470276 0.14310596883296967 0.8031270503997803 -0.5783663392066956
0.1706119328737259 0.14214026927947998 -0.11048756539821625 0.8851454257965088 0.4419488310813904 -0.14559818804264069
0.17240746319293976 0.1446569710969925 -0.09193265438079834 0.8851454257965088 0.4419488310813904 -0.14559818804264069
0.17887017130851746 -0.05551867187023163 0.1982705295085907 -0.6595962047576904 -0.5967845320701599 -0.45692577958106995
0.1973491758108139 0.12056022882461548 -0.12076185643672943 -0.5424831509590149 -0.40969395637512207 0.7333914041519165
0.197098046541214 0.06982145458459854 -0.03484031558036804 -0.9017933011054993 -0.4302116632461548 0.041069842875003815
0.20205244421958923 -0.051999665796756744 -0.26718074083328247 0.206539124250412 -0.2144208401441574 -0.9546545147895813
0.1914196014404297 -0.12622836232185364 0.05993092432618141 0.9447901248931885 -0.3256891071796417 0.036029886454343796
0.23690557479858398 -0.03204905241727829 0.0052624717354774475 -0.8313130736351013 -0.047087084501981735 0.5538063049316406
0.19055336713790894 -0.020004848018288612 -0.10582585632801056 -0.9432389736175537 0.28853970766067505 0.16445410251617432
0.17828090488910675 0.12419671565294266 -0.11833089590072632 0.8089487552642822 0.4756745994091034 -0.3454500138759613
0.17133387923240662 0.06912293285131454 0.047870177775621414 0.5050382018089294 0.7349565625190735 0.4525209963321686
0.17420300841331482 0.1471736580133438 -0.07337775826454163 0.6134622097015381 0.7715861797332764 0.1682821661233902
0.22261452674865723 -0.018591580912470818 0.09337560832500458 -0.7077000141143799 -0.19916057586669922 -0.6778611540794373
0.058401912450790405 0.13443346321582794 -0.3062966465950012 0.28947892785072327 0.8827633857727051 -0.37004154920578003
0.13120953738689423 -0.0954464003443718 0.29707762598991394 0.6818186044692993 0.6009167432785034 0.4171599745750427
0.20941676199436188 -0.13043594360351562 0.1565706729888916 -0.9176245927810669 0.3589393198490143 -0.17066828906536102
0.11118034273386002 0.01621299982070923 0.13863810896873474 -0.4066087603569031 -0.8129079341888428 -0.4169533848762512
0.14116477966308594 -0.05580710619688034 0.23645968735218048 0.7271540760993958 0.22154653072357178 0.649741530418396
0.1647447943687439 0.022238776087760925 0.10696126520633698 0.33649054169654846 0.6734258532524109 0.6582337617874146
0.24406538903713226 -0.07557511329650879 0.050815533846616745 -0.9217181205749512 0.09047918766736984 -0.3771595060825348
0.16544482111930847 0.05564475059509277 -0.16298815608024597 -0.7825683355331421 -0.4571342468261719 0.422628790140152
0.2071947157382965 -0.001440592110157013 -0.08245186507701874 0.936715304851532 0.08887883275747299 -0.33862224221229553
0.1196417436003685 -0.09438607096672058 -0.2797792851924896 -0.40926408767700195 -0.12264925986528397 0.90413498878479
0.1503753364086151 0.09777988493442535 0.007440820336341858 -0.7973314523696899 -0.3924224376678467 -0.4585490822792053
0.07917563617229462 -0.018655849620699883 -0.29591619968414307 0.27063608169555664 -0.36841702461242676 -0.8893958926200867
0.2627691626548767 -0.001268995925784111 0.014465805143117905 0.8921849131584167 -0.26135918498039246 -0.3683713674545288
0.23259109258651733 -0.023645883426070213 0.004540212452411652 -0.8603686690330505 0.08717312663793564 0.502161979675293
0.1987999975681305 0.08122535794973373 -0.12402305006980896 -0.7538199424743652 -0.21983592212200165 0.6192153692245483
0.1570783406496048 0.11455745995044708 -0.14234331250190735 -0.5258640050888062 0.035438403487205505 0.8498300313949585
0.19766153395175934 0.014098207466304302 -0.09324117004871368 0.8851454257965088 0.4419488310813904 -0.14559818804264069
0.1254269778728485 0.17295986413955688 -0.05017311871051788 -0.5713096261024475 -0.8016690015792847 -0.17587552964687347
0.21618419885635376 -0.08101101964712143 0.1062760055065155 -0.8701768517494202 0.3027137517929077 -0.3887886703014374
0.20340847969055176 0.11475308984518051 -0.1015520989894867 -0.8851454257965088 -0.4419488310813904 0.14559818804264069
0.17991334199905396 0.07592444121837616 -0.013471681624650955 -0.8100496530532837 -0.5665832757949829 -0.15100635588169098
0.11235211789608002 -0.04648231714963913 -0.2860043942928314 -0.06085515767335892 0.05101292207837105 0.9968421459197998
0.14757564663887024 0.1300465613603592 -0.15309804677963257 -0.9008879065513611 -0.38385820388793945 0.20261754095554352
0.18964546918869019 -0.021277399733662605 -0.11520804464817047 -0.9070826172828674 0.3597923219203949 0.21851931512355804
0.11116540431976318 0.16742072999477386 -0.1536879986524582 -0.2323264628648758 -0.705375611782074 0.669678807258606
0.19556954503059387 0.05451742559671402 0.016729429364204407 -0.6450659036636353 -0.7641268372535706 0.0005145943723618984
0.2405170500278473 0.015445716679096222 0.0640677958726883 0.6393405199050903 0.461521178483963 0.6150137186050415
0.16179154813289642 0.13556793332099915 -0.04991471767425537 0.5372893810272217 0.595913827419281 0.5968306660652161
0.21202324330806732 0.0410274900496006 -0.27296650409698486 0.04642275348305702 -0.1731676161289215 -0.9837977290153503
0.12581531703472137 -0.08807079493999481 0.28667208552360535 0.6832370758056641 0.604167640209198 0.41008350253105164
0.1466742604970932 0.12878313660621643 -0.16241292655467987 -0.854587733745575 -0.22318200767040253 0.46890249848365784
0.00990644097328186 0.22069396078586578 -0.09782268106937408 0.4348668158054352 0.8999232053756714 0.03208044916391373
0.18795086443424225 0.12340421974658966 -0.06194917857646942 0.5250267386436462 0.574917197227478 0.6275485157966614
0.1501687467098236 0.12783265113830566 -0.27819862961769104 -0.2085583359003067 -0.27557599544525146 0.9383822679519653
0.009696334600448608 0.20572920143604279 -0.14452409744262695 0.14310596883296967 0.8031270503997803 -0.5783663392066956
0.23621639609336853 0.02382197603583336 0.06334784626960754 -0.5783370137214661 -0.6505278944969177 -0.4922802448272705
0.2312779724597931 -0.03546515852212906 0.09482590854167938 -0.7996267676353455 -0.13779620826244354 -0.5844734311103821
0.20767803490161896 0.10643742233514786 -0.1008373498916626 -0.9020447731018066 -0.04243256524205208 0.4295516610145569
0.11783091723918915 -0.0693892389535904 0.294838011264801 0.9137686491012573 0.3438046872615814 0.21639153361320496
0.2602812945842743 0.009590334258973598 0.03230364993214607 -0.8851454257965088 -0.4419488310813904 0.14559818804264069
0.13524360954761505 0.11446681618690491 -0.16804397106170654 -0.8425965905189514 0.2998770773410797 0.4473305940628052
0.16460098326206207 -0.06630163639783859 -0.26998448371887207 0.2576700448989868 -0.2950989305973053 -0.9200667142868042
0.11116540431976318 0.16742072999477386 -0.1536879986524582 -0.2323264628648758 -0.705375611782074 0.669678807258606
0.16176250576972961 0.08472396433353424 0.0370376892387867 0.6589850187301636 0.6037205457687378 0.44862037897109985
0.10891186445951462 -0.052017830312252045 0.2933449149131775 -0.9347367286682129 -0.15338152647018433 -0.32053300738334656
0.1256541907787323 0.048621341586112976 -0.2920641601085663 0.5887122750282288 -0.04431123659014702 -0.8071272373199463
0.21618419885635376 -0.08101101964712143 0.1062760055065155 -0.8701768517494202 0.3027137517929077 -0.3887886703014374
0.19638806581497192 0.03480565920472145 -0.2795884609222412 -0.1392306238412857 0.22374381124973297 0.9646520018577576
0.18594986200332642 0.10625320672988892 -0.1261742115020752 0.642331063747406 0.1696179360151291 -0.7474225759506226
0.24483713507652283 -0.03538224846124649 0.04336382821202278 -0.9983164668083191 0.014965067617595196 -0.0560385026037693
0.1209055632352829 0.16662245988845825 -0.09689702093601227 -0.6212066411972046 -0.7728516459465027 0.12962506711483002
0.209759920835495 -0.03213737905025482 0.10825559496879578 0.6314236521720886 0.29333242774009705 0.7178163528442383
0.07982096076011658 0.14397117495536804 -0.2812763750553131 0.1879166215658188 0.9341838359832764 -0.3032950758934021
0.2354019284248352 -0.0587015300989151 0.04936523362994194 0.9693318009376526 -0.1746647208929062 0.17288169264793396
0.16176250576972961 0.08472396433353424 0.0370376892387867 0.6589850187301636 0.6037205457687378 0.44862037897109985
-0.027559831738471985 -0.1522141396999359 -0.30387356877326965 -0.5799697637557983 0.6293967962265015 0.517198920249939
0.18759630620479584 -0.15739329159259796 0.07623450458049774 0.9728374481201172 -0.008864641189575195 -0.2313195765018463
0.16203463077545166 0.06531539559364319 -0.1543656587600708 -0.7781389355659485 -0.5415066480636597 0.31823015213012695
0.20649738609790802 0.012032496742904186 -0.0457950159907341 -0.8851454257965088 -0.4419488310813904 0.14559818804264069
0.17574788630008698 -0.036111533641815186 -0.11057931184768677 -0.8387232422828674 0.4506944715976715 0.3056432008743286
0.1868833303451538 -0.14361818134784698 0.11371313035488129 -0.9318307638168335 0.258309930562973 0.2548869848251343
0.1389743685722351 0.1467990130186081 -0.15453794598579407 -0.8851454257965088 -0.4419488310813904 0.14559818804264069
0.18541547656059265 0.025834623724222183 -0.1320648044347763 -0.7986270189285278 0.13846240937709808 0.5856817364692688
0.05343318730592728 0.04860848933458328 0.15419475734233856 0.8022142648696899 0.5838599801063538 0.12473896890878677
0.12185179442167282 0.0016217604279518127 0.15922357141971588 -0.4766208529472351 -0.8452973961830139 -0.24146386981010437
0.14455026388168335 0.05238308012485504 0.07569125294685364 0.3534826934337616 0.6392996907234192 0.6828952431678772
0.14258721470832825 -0.003358328714966774 0.1360204666852951 -0.6400466561317444 -0.748030960559845 -0.17547062039375305
0.05907021462917328 0.18742768466472626 -0.2755199372768402 -0.029435496777296066 0.11801863461732864 -0.9925749897956848
0.09481152892112732 0.012712626717984676 0.16264581680297852 -0.440848171710968 -0.86966872215271 -0.22210194170475006
0.23630982637405396 -0.05742897093296051 0.05874742195010185 -0.9137024283409119 0.32791367173194885 -0.24004270136356354
0.16369840502738953 -0.05229011923074722 -0.12562516331672668 -0.7857962250709534 0.25773075222969055 0.5622269511222839
0.17156781256198883 0.049776591360569 -0.14357638359069824 0.8851454257965088 0.4419488310813904 -0.14559818804264069
0.1513875126838684 0.14979355037212372 -0.0699843168258667 -0.46566006541252136 -0.8675095438957214 -0.1748940795660019
0.15827739238739014 -0.05074361711740494 0.22171835601329803 0.6909968256950378 0.30577534437179565 0.6549997925758362
-0.02113284170627594 -0.1583736538887024 -0.2834981679916382 -0.5722321271896362 0.6148159503936768 0.5427261590957642
0.19255131483078003 -0.10992554575204849 0.11629655957221985 -0.9916983842849731 0.05740250274538994 0.1150621622800827
0.19851671159267426 -0.02335141785442829 -0.06757193803787231 -0.8708683252334595 0.46106159687042236 0.17032481729984283
0.12499124556779861 -0.05955444276332855 0.2609049081802368 -0.8768889307975769 -0.11671650409698486 -0.4663078784942627
0.24315747618675232 -0.07684766501188278 0.041433338075876236 -0.8820862770080566 0.07674604654312134 -0.4647943675518036
0.13739660382270813 -0.08683691918849945 0.25350847840309143 -0.9053630828857422 -0.4124869108200073 -0.10085787624120712
0.10543953627347946 0.012176267802715302 -0.28412115573883057 0.6455052495002747 -0.1693868190050125 -0.7447355389595032
0.11235211789608002 -0.04648231714963913 -0.2860043942928314 -0.06085515767335892 0.05101292207837105 0.9968421459197998
0.034992240369319916 -0.09588103741407394 -0.2891823351383209 0.4961923062801361 -0.17808590829372406 -0.8497520089149475
0.19243067502975464 -0.13584280014038086 0.17103876173496246 -0.8541005849838257 0.33156323432922363 -0.40072187781333923
0.13970811665058136 -0.017673397436738014 0.20921027660369873 -0.3813074231147766 -0.7295581102371216 -0.5677585005760193
0.14629346132278442 -0.033697545528411865 -0.28231626749038696 0.19646157324314117 -0.07758250087499619 -0.9774373769760132
0.15645945072174072 0.07047741860151291 -0.279906302690506 -0.11120858043432236 -0.002291802316904068 0.9937944412231445
0.10206608474254608 -0.06015445291996002 -0.28272151947021484 0.17592163383960724 -0.02520724944770336 -0.9840813279151917
0.1647675484418869 -0.031135844066739082 0.18654702603816986 -0.8851454257965088 -0.4419488310813904 0.14559818804264069
0.16609424352645874 0.0762871727347374 0.0377628393471241 -0.5210652351379395 -0.7124742269515991 -0.46996966004371643
0.11210490018129349 0.017508896067738533 0.1481923907995224 -0.38887953758239746 -0.8396701216697693 -0.3791130781173706
0.12000127136707306 0.16535498201847076 -0.10624182224273682 0.6858090162277222 0.7125377655029297 -0.148175448179245
0.21441930532455444 0.002693580463528633 -0.26744282245635986 -0.05819503590464592 0.10079855471849442 0.9932034611701965
0.18854224681854248 0.059118159115314484 -0.012027166783809662 0.7744856476783752 0.568369448184967 0.2777196168899536
0.164315328001976 -0.023003583773970604 -0.14029420912265778 -0.7980870008468628 0.1641102135181427 0.579762876033783
0.14258721470832825 -0.003358328714966774 0.1360204666852951 -0.6400466561317444 -0.748030960559845 -0.17547062039375305
0.10524223744869232 0.1796026974916458 -0.018575061112642288 -0.6282109618186951 -0.69430011510849 -0.3511386215686798
0.14793838560581207 -0.11673148721456528 0.22685392200946808 -0.9506552815437317 -0.03925306349992752 -0.30775579810142517
0.10143342614173889 0.03210019692778587 0.12760698795318604 0.42156702280044556 0.7428927421569824 0.5199919939041138
0.0916237011551857 0.16051438450813293 -0.15930791199207306 0.3252778947353363 0.5891802906990051 -0.7396356463432312
0.1740729808807373 -0.08770153671503067 0.20556358993053436 -0.8123717308044434 0.22862927615642548 -0.5364519953727722
0.032186031341552734 0.15791282057762146 -0.287087619304657 -0.3421192765235901 -0.8395850658416748 0.4219612777233124
0.016122594475746155 0.21473653614521027 -0.0781155675649643 0.29371264576911926 0.9545688033103943 0.05031144246459007
0.05762193351984024 0.20617106556892395 -0.09328605234622955 0.1400672197341919 0.9787483215332031 -0.149776428937912
0.1647447943687439 0.022238776087760925 0.10696126520633698 0.33649054169654846 0.6734258532524109 0.6582337617874146
0.15352916717529297 -0.10889523476362228 0.2846284806728363 0.7621217370033264 0.4686978757381439 0.44664621353149414
0.1436534821987152 -0.12281369417905807 0.2896582782268524 0.7865535020828247 0.4710019826889038 0.3993628919124603
0.1469523012638092 -0.03192488104104996 -0.1656143218278885 0.9802113175392151 0.1965082287788391 -0.023879962041974068
0.1735973060131073 0.11586867272853851 -0.27939915657043457 0.1941327452659607 0.051478225737810135 -0.9796236157417297
-0.040342777967453 -0.16631902754306793 -0.29025495052337646 -0.55535888671875 0.6191117763519287 0.5552271008491516
0.15037956833839417 -0.03226463496685028 0.22979573905467987 -0.6164422035217285 -0.5479744076728821 -0.5654406547546387
0.05881068855524063 0.041255734860897064 0.16456805169582367 0.7709510326385498 0.6321954727172852 -0.07722251862287521
0.20686472952365875 -0.11929640918970108 0.17486883699893951 -0.9336048364639282 -0.14296478033065796 -0.32854709029197693
0.14891307055950165 0.04388575255870819 0.07642160356044769 0.265574187040329 0.7265686392784119 0.6336942315101624
0.12370090186595917 0.004213552922010422 0.1783321350812912 0.4408859312534332 0.8973925709724426 0.017499620094895363
0.15277768671512604 0.12293372303247452 -0.1430632621049881 0.509367823600769 0.2829444110393524 -0.8127034306526184
0.0957396999001503 0.014013594947755337 0.17223750054836273 0.41130682826042175 0.8917974829673767 0.1884780079126358
0.2568957209587097 0.019191259518265724 0.04086404666304588 -0.7528688907623291 -0.6304423809051514 -0.18902602791786194
0.1171661913394928 -0.015283199027180672 0.21356962621212006 0.4012656509876251 0.7706221342086792 0.4951033890247345
0.16148881614208221 -0.1275189220905304 0.2764878273010254 0.989132285118103 0.1430494338274002 0.033974047750234604
0.15750674903392792 -0.046356163918972015 -0.14525456726551056 0.9781864881515503 -0.009579884819686413 -0.2075078785419464
0.2559719681739807 -0.06312672048807144 0.026841044425964355 0.9762104153633118 -0.19232676923274994 -0.1001187339425087
0.16617101430892944 0.01836145669221878 -0.1375981718301773 -0.7651970386505127 0.29568424820899963 0.5718778371810913
0.16593453288078308 -0.13617771863937378 0.2772320508956909 0.9881324768066406 0.03973889723420143 0.14837466180324554
0.18541547656059265 0.025834623724222183 -0.1320648044347763 -0.7986270189285278 0.13846240937709808 0.5856817364692688
0.23812563717365265 -0.05488386005163193 0.07751180231571198 -0.8600900173187256 0.2986118793487549 -0.41361331939697266
0.14507779479026794 0.14094960689544678 -0.1351882815361023 0.8851454257965088 0.4419488310813904 -0.14559818804264069
0.20318098366260529 -0.12445969134569168 0.13680139183998108 0.8851454257965088 0.4419488310813904 -0.14559818804264069
0.1503753364086151 0.09777988493442535 0.007440820336341858 -0.7973314523696899 -0.3924224376678467 -0.4585490822792053
0.17574788630008698 -0.036111533641815186 -0.11057931184768677 -0.8387232422828674 0.4506944715976715 0.3056432008743286
0.16971416771411896 0.14088192582130432 -0.1197650134563446 -0.8851454257965088 -0.4419488310813904 0.14559818804264069
0.16544482111930847 0.05564475059509277 -0.16298815608024597 -0.7825683355331421 -0.4571342468261719 0.422628790140152
0.12943695485591888 -0.06821323186159134 0.26164913177490234 -0.8517207503318787 -0.3249117136001587 -0.41110101342201233
0.04169066995382309 -0.07208114117383957 -0.2835337817668915 0.4550056755542755 -0.22782884538173676 -0.8608505725860596
0.19516521692276 -0.0049087367951869965 -0.2734268009662628 -0.08811628818511963 -0.007680206559598446 0.9960805177688599
0.2041865885257721 0.08877544850111008 -0.06835837662220001 0.9799705743789673 0.15711943805217743 0.12235712260007858
0.16268856823444366 -0.05933515727519989 0.22245679795742035 0.7015513181686401 0.2582286596298218 0.6641864776611328
0.07953640818595886 0.18709731101989746 -0.15210117399692535 0.3352012634277344 0.792589545249939 -0.5093544125556946
0.1945165991783142 0.08956799656152725 -0.1247401088476181 0.8851454257965088 0.4419488310813904 -0.14559818804264069
0.11150145530700684 0.034065909683704376 -0.28814056515693665 0.5633454918861389 -0.256544828414917 -0.7853831052780151
0.15277768671512604 0.12293372303247452 -0.1430632621049881 0.509367823600769 0.2829444110393524 -0.8127034306526184
0.12495656311511993 -0.10165312141180038 -0.2695268988609314 -0.41886770725250244 -0.10162507742643356 0.9023426175117493
0.16788433492183685 0.04026360064744949 0.0734444111585617 0.2682626247406006 0.7196840047836304 0.6403827667236328
