ply
format ascii 1.0
element vertex 394
property float x
property float y
property float z
property float nx
property float ny
property float nz
end_header
-0.16213953495025635 -0.14258646965026855 -0.3129532039165497 -0.8151861429214478 -0.579184889793396 0.00404804851859808
-0.061419419944286346 -0.3010987341403961 -0.1489226073026657 0.8343419432640076 0.3985181450843811 -0.380863219499588
0.0672854334115982 0.09278588742017746 0.4403829574584961 -0.781291663646698 0.37935110926628113 0.4956571161746979
0.011597063392400742 0.5710573792457581 0.2598288059234619 0.9732112288475037 0.2262292057275772 -0.040990784764289856
-0.0506255067884922 0.7385982871055603 0.09786342084407806 -0.9664872884750366 -0.25669196248054504 0.003392437705770135
-0.01874173805117607 -0.4616461396217346 -0.26422592997550964 0.8475608825683594 0.4565029740333557 -0.2706393003463745
-0.04736211895942688 0.09758105874061584 0.06054748594760895 -0.9114989638328552 -0.21335574984550476 0.35163748264312744
-0.004629310220479965 0.3403055965900421 -0.0026712566614151 0.8553709983825684 -0.011211318895220757 -0.5178945064544678
-0.11783429235219955 0.019029386341571808 -0.12615783512592316 0.9986647367477417 -0.028665680438280106 -0.04297655075788498
0.024650417268276215 0.039387986063957214 0.45406317710876465 0.9731505513191223 -0.20937542617321014 -0.09560278058052063
-0.005350027233362198 0.5637866258621216 0.10536190867424011 -0.9956963658332825 -0.09261926263570786 -0.0032203909941017628
-0.051193758845329285 -0.673448383808136 -0.4473735988140106 -0.906639039516449 0.4014676511287689 -0.12972812354564667
0.020512104034423828 0.07461957633495331 0.34120914340019226 0.9968116283416748 0.07889474928379059 -0.011922807432711124
0.008216634392738342 0.38214653730392456 0.03767310082912445 0.8597347140312195 0.16116644442081451 -0.4846457839012146
-0.16262617707252502 0.21841183304786682 -0.25826573371887207 0.8389541506767273 -0.5404729247093201 -0.06359992176294327
0.011362981051206589 -0.03496747091412544 0.16165494918823242 -0.9965817332267761 0.07111024856567383 -0.04205014929175377
-0.03557438403367996 -0.6581024527549744 -0.35047638416290283 -0.9406733512878418 0.07507028430700302 0.3309049904346466
-0.11258624494075775 -0.037515271455049515 -0.061555586755275726 0.8719102740287781 0.03648335486650467 -0.48830464482307434
-0.044277604669332504 -0.5521432757377625 -0.3769678473472595 -0.9993894696235657 -0.03143484145402908 -0.015246645547449589
-0.13313323259353638 -0.18488244712352753 -0.4611443281173706 -0.7533798813819885 -0.6545920372009277 -0.0626738891005516
-0.007820095866918564 0.2048722803592682 0.1448952704668045 0.9817297458648682 -0.037018392235040665 -0.18664488196372986
-0.1171288713812828 -0.14173655211925507 -0.14810435473918915 -0.727556049823761 -0.5257644653320312 0.44071975350379944
0.04982706159353256 0.11239838600158691 0.42105966806411743 0.8312296271324158 -0.23916305601596832 -0.5018548965454102
-0.08407068252563477 -0.21869061887264252 -0.18687310814857483 0.9694542288780212 0.24509276449680328 0.009385659359395504
0.06433891505002975 0.12908406555652618 0.43422770500183105 0.8118909001350403 -0.29758018255233765 -0.5022740960121155
-0.06090158969163895 -0.30904772877693176 -0.1582288295030594 0.8419762253761292 0.38884198665618896 -0.374002605676651
-0.1689443588256836 -0.03473978862166405 -0.16823795437812805 0.8070756793022156 -0.25340768694877625 -0.5333042144775391
-0.08783751726150513 -0.7404018640518188 -0.3501189947128296 0.9195830225944519 -0.35081595182418823 -0.17690438032150269
-0.05474099516868591 -0.4157094657421112 -0.3489636182785034 0.9354332089424133 -0.2795749306678772 0.21633896231651306
-0.16336017847061157 -0.13740290701389313 -0.3807053864002228 0.9845411777496338 -0.03380743786692619 -0.17185968160629272
-0.051153767853975296 0.7467073202133179 0.10735704004764557 -0.9700973033905029 -0.2397180199623108 0.03803298622369766
-0.10688412189483643 0.09019391238689423 -0.05027218535542488 0.79512619972229 -0.027222352102398872 -0.6058326363563538
-0.0338997021317482 0.7118151187896729 0.00849112868309021 -0.8405030965805054 -0.5341240167617798 -0.09091801941394806
-0.18764667212963104 -0.01565525308251381 -0.2950547933578491 0.8636949062347412 -0.4175094962120056 0.28234174847602844
0.051102474331855774 0.26259666681289673 0.2110590636730194 0.5783519148826599 -0.8146275877952576 -0.04348573088645935
-0.04396246001124382 0.24267080426216125 -0.005658410489559174 0.822787880897522 -0.22878746688365936 -0.5202656388282776
0.11154104769229889 0.0018703378736972809 -0.3927464783191681 0.8788371086120605 -0.4452078640460968 0.1715668886899948
-0.028797226026654243 0.25075629353523254 0.005226992070674896 -0.7987834215164185 0.2252243459224701 0.557870090007782
-0.15039902925491333 -0.13187964260578156 -0.24341973662376404 -0.5922507643699646 -0.782151997089386 0.19359084963798523
-0.00470266118645668 0.16230472922325134 0.12385489046573639 0.9567052125930786 0.08816906809806824 -0.27738285064697266
-0.011175189167261124 -0.39860841631889343 -0.19737735390663147 -0.6907991766929626 -0.4455353319644928 0.5694687962532043
-0.0419965423643589 -0.35284921526908875 -0.17801740765571594 0.7345518469810486 0.5350193381309509 -0.4173581302165985
-0.17189782857894897 0.12339287996292114 -0.3516646921634674 -0.9846182465553284 -0.1194593533873558 0.12750020623207092
-0.12138298153877258 0.06835760176181793 -0.09643630683422089 0.9916497468948364 0.08814049512147903 -0.09413830190896988
0.004438586533069611 0.4277208745479584 0.023378759622573853 -0.9803768992424011 0.18838851153850555 -0.05805903673171997
-0.03440926596522331 -0.46585142612457275 -0.2914296090602875 -0.8892816305160522 -0.3709336221218109 0.26755648851394653
-0.0018915832042694092 0.5195695757865906 0.10191665589809418 0.9601402282714844 0.23018458485603333 0.15857422351837158
-0.0700642541050911 0.025999635457992554 -0.017739426344633102 -0.6609090566635132 0.07895024865865707 0.7463015913963318
-0.03966592997312546 -0.6004772782325745 -0.31123900413513184 -0.9754835963249207 0.16276763379573822 0.14811614155769348
-0.020306117832660675 -0.4376319944858551 -0.23611165583133698 -0.8148858547210693 -0.5066180229187012 0.28160107135772705
-0.14124155044555664 0.15997202694416046 -0.16761210560798645 -0.8067003488540649 -0.3235083222389221 0.49454712867736816
-0.18055762350559235 -0.09071230888366699 -0.19903399050235748 0.9304082989692688 0.28480228781700134 -0.23071202635765076
-0.13661067187786102 0.24721795320510864 -0.1860121339559555 0.9733262658119202 -0.22542817890644073 -0.04263957962393761
-0.05009724944829941 0.7304891347885132 0.08836972713470459 0.9134931564331055 0.3983903229236603 -0.08255479484796524
0.09699812531471252 0.2918865978717804 0.3104606568813324 0.6548067927360535 -0.7557681798934937 -0.006526561453938484
-0.10589932650327682 -0.12300918996334076 -0.06821700185537338 0.8553591370582581 0.28705185651779175 -0.4312330186367035
-0.05428985878825188 -0.6259213089942932 -0.3917318284511566 0.9380314350128174 -0.1838046908378601 -0.2937902808189392
0.15335312485694885 0.330383837223053 -0.2928960621356964 0.9284660220146179 -0.2726150155067444 -0.25225362181663513
0.02035284787416458 0.07529587298631668 0.3323695957660675 0.9968116283416748 0.07889474928379059 -0.011922807432711124
-0.03467205911874771 0.13331182301044464 0.04742741584777832 0.9525647163391113 -0.10781402140855789 -0.28459879755973816
-0.03092847764492035 0.6874256730079651 0.09551313519477844 0.9212653040885925 0.32244041562080383 0.21749117970466614
-0.058779165148735046 -0.34681087732315063 -0.23066610097885132 0.9418138265609741 0.30752113461494446 -0.13571083545684814
-0.2104385793209076 -0.09574735164642334 -0.43716326355934143 -0.8416382670402527 0.5305918455123901 0.10058492422103882
-0.09754033386707306 -0.02397366240620613 -0.024542029947042465 0.7744227051734924 0.015244830399751663 -0.6324847936630249
0.09233111143112183 0.25163739919662476 -0.3460610508918762 -0.884502649307251 0.43616417050361633 -0.16557735204696655
-0.17439141869544983 0.17356257140636444 -0.2281629592180252 -0.9591810703277588 -0.14078818261623383 0.24525567889213562
-0.1183992400765419 0.032847948372364044 -0.08195112645626068 0.9796094298362732 0.061969220638275146 -0.19111546874046326
0.011061005294322968 0.5614812970161438 0.15164558589458466 0.9259896874427795 0.23558475077152252 -0.29503029584884644
0.016811281442642212 -0.0639699250459671 0.42524951696395874 -0.9605503678321838 0.12551215291023254 0.2481725811958313
-0.03572996333241463 -0.6574417948722839 -0.3591117858886719 0.9401965737342834 -0.09138374775648117 -0.32814547419548035
-0.03695621341466904 -0.431954950094223 -0.2800711989402771 -0.8353971242904663 -0.5249062180519104 0.16304942965507507
-0.15603096783161163 0.1393343061208725 -0.23013615608215332 0.7670630216598511 0.6106207966804504 -0.19686684012413025
-0.16940656304359436 -0.06661246716976166 -0.4177871346473694 0.7006266117095947 -0.49333369731903076 -0.5155037641525269
-0.11380285024642944 0.16541388630867004 -0.13097558915615082 0.946267306804657 0.22105419635772705 -0.23603639006614685
-0.16262617707252502 0.21841183304786682 -0.25826573371887207 0.8389541506767273 -0.5404729247093201 -0.06359992176294327
0.01744379848241806 -0.08425341546535492 0.3439127802848816 0.9968116283416748 0.07889474928379059 -0.011922807432711124
-0.006254006177186966 0.5794376730918884 0.13334937393665314 0.9636802673339844 0.20621809363365173 -0.16968916356563568
-0.020670916885137558 -0.4302924573421478 -0.21804437041282654 -0.6726320385932922 -0.48461365699768066 0.5592098832130432
-0.06784144043922424 -0.6557580232620239 -0.41163724660873413 0.9206568002700806 -0.3337854743003845 -0.20243088901042938
0.08184647560119629 0.2834412753582001 0.2983302175998688 0.6571987271308899 -0.753623902797699 -0.011868862435221672
-0.05168203264474869 0.7548165321350098 0.11685067415237427 0.9832264184951782 0.08045557886362076 -0.1636846363544464
-0.051523320376873016 0.7541425228118896 0.1256600171327591 0.9691802859306335 0.14330285787582397 -0.20038415491580963
-0.053651951253414154 -0.4203341603279114 -0.28851595520973206 0.9489904046058655 0.314998060464859 -0.013907676562666893
-0.04930323362350464 0.07679714262485504 -0.23927003145217896 0.6941995024681091 0.009957373142242432 0.7197137475013733
-0.039400603622198105 -0.4100343585014343 -0.3393842577934265 0.9202309846878052 -0.296709805727005 0.25522181391716003
-0.09301626682281494 0.11483068764209747 -0.038332972675561905 0.7439745664596558 -0.1242208406329155 -0.656559944152832
-0.0195765383541584 -0.4523106813430786 -0.27224624156951904 0.8570590615272522 0.4500071704387665 -0.2508850693702698
0.10081814229488373 -0.054549988359212875 -0.3520667850971222 0.9246351718902588 -0.14169053733348846 0.3535160422325134
-0.03467205911874771 0.13331182301044464 0.04742741584777832 0.9525647163391113 -0.10781402140855789 -0.28459879755973816
-0.013786733150482178 -0.5290102958679199 -0.29571786522865295 -0.9461435675621033 -0.0768088772892952 0.31450387835502625
0.11056828498840332 0.02402167022228241 -0.3274969458580017 0.7467488050460815 -0.4412834048271179 0.4976295828819275
0.01637611910700798 0.12749913334846497 0.3453293442726135 0.990639328956604 0.058928098529577255 -0.12313050031661987
0.1654280126094818 0.3581131100654602 -0.410395085811615 0.913523256778717 0.016486188396811485 0.4064522683620453
0.0951569676399231 0.3057120144367218 0.24801430106163025 0.7014628648757935 -0.7116721868515015 -0.03837459161877632
0.017540883272886276 0.09900902211666107 0.25418710708618164 0.9976616501808167 0.06273049116134644 -0.02713186666369438
-0.04191569611430168 0.21650242805480957 -0.007697366178035736 0.8263835906982422 -0.18150734901428223 -0.5330527424812317
-0.056656740605831146 -0.3845739960670471 -0.30310332775115967 0.977677047252655 -0.01300964504480362 0.20971012115478516
-0.053912002593278885 -0.4249798357486725 -0.3409990668296814 0.9867826700210571 -0.14036652445793152 0.0809762179851532
0.01802651584148407 -0.08086216449737549 0.4150715470314026 0.985456645488739 -0.021830866113305092 -0.16851872205734253
-0.06697821617126465 0.32021206617355347 -0.10628701001405716 0.8094121813774109 -0.4946259558200836 -0.3165391981601715
-0.003939982503652573 0.3314923644065857 -0.0033579617738723755 0.8071208596229553 -0.16706925630569458 -0.566254198551178
0.01282251626253128 0.16613364219665527 0.30387839674949646 0.9994108080863953 0.004783742595463991 -0.03398643434047699
0.011116024106740952 0.5731000900268555 0.23312869668006897 0.9732112288475037 0.2262292057275772 -0.040990784764289856
-0.00919075682759285 0.38910597562789917 -0.061114564538002014 0.8922250270843506 -0.44823935627937317 -0.05491698905825615
0.02533741295337677 0.01292676106095314 0.3364022374153137 0.991875946521759 -0.09010261297225952 -0.08979727327823639
-0.16320759057998657 -0.1380508542060852 -0.37223637104034424 0.9548950791358948 0.03942492976784706 -0.2943144738674164
-0.17515860497951508 0.15985745191574097 -0.38299277424812317 -0.9877076745033264 -0.08646580576896667 0.13022001087665558
-0.19683630764484406 -0.048528384417295456 -0.2979995310306549 0.9232314825057983 -0.2322162687778473 0.306135892868042
0.13282637298107147 0.38113242387771606 -0.36272090673446655 0.9132117629051208 0.15546871721744537 0.37666118144989014
-0.11566097289323807 0.19049417972564697 -0.12036497890949249 0.9609990119934082 0.1311415433883667 -0.24348048865795135
0.01757076382637024 0.450869619846344 -0.03603478893637657 0.9083296656608582 -0.41175711154937744 0.07343897223472595
-0.04909617453813553 -0.037438344210386276 0.005015254020690918 0.585144579410553 0.08055293560028076 -0.806918203830719
-0.0354875884950161 0.7538740038871765 0.1540440022945404 -0.9143036007881165 -0.13109804689884186 0.38322603702545166
-0.060125984251499176 -0.3295914828777313 -0.22932441532611847 0.9516111612319946 0.30145734548568726 -0.05966285243630409
0.015013337135314941 -0.050468992441892624 0.36426880955696106 0.9992052912712097 -0.020015668123960495 -0.03446830064058304
0.015418246388435364 0.11390893161296844 0.1753178834915161 0.9672321677207947 -0.04365236684679985 -0.2501128315925598
-0.05458862707018852 0.790622889995575 0.11077880859375 0.9998592138290405 -0.013918280601501465 -0.009369760751724243
0.10845783352851868 0.051004305481910706 -0.32539454102516174 -0.6969047784805298 0.5503780245780945 -0.45979103446006775
-0.053705330938100815 -0.43160751461982727 -0.36757606267929077 0.9420041441917419 -0.16862060129642487 0.29016411304473877
-0.08763355016708374 -0.7469425201416016 -0.3763468861579895 0.9587376713752747 -0.2841567397117615 -0.008773429319262505
-0.13131187856197357 0.18474803864955902 -0.15637558698654175 0.8881984353065491 0.18336322903633118 -0.4212854504585266
-0.08019940555095673 -0.26950961351394653 -0.19948917627334595 0.9905778169631958 0.13333286345005035 0.03127020597457886
-0.033897362649440765 0.7294631004333496 0.1254652738571167 -0.9332931637763977 -0.31626224517822266 0.17012354731559753
-0.04594630375504494 -0.29568517208099365 -0.12997694313526154 -0.7163600325584412 -0.4815599024295807 0.5049043297767639
0.006566140800714493 0.3950616121292114 -0.014856606721878052 0.9878392815589905 -0.11883936822414398 -0.10025367140769958
0.012874826788902283 0.16002555191516876 0.26783356070518494 -0.995010256767273 -0.0422966443002224 0.09036353975534439
0.027102872729301453 0.5666899085044861 0.21678605675697327 -0.986853837966919 -0.16027545928955078 0.020768677815794945
0.09995503723621368 -0.04489804431796074 -0.3603591024875641 0.9347116351127625 -0.1073865219950676 0.3387952744960785
-0.07017184793949127 0.21997983753681183 -0.05365695804357529 0.8281872272491455 -0.15023919939994812 -0.5399389863014221
0.14983972907066345 0.36967334151268005 -0.3266512155532837 -0.9884308576583862 -0.038272179663181305 0.1467639058828354
-0.017334040254354477 -0.4849948287010193 -0.3010360300540924 0.9409516453742981 0.1697918027639389 -0.29288357496261597
-0.04792975261807442 0.709553062915802 0.13104753196239471 -0.9513955116271973 -0.28447848558425903 0.1179770827293396
-0.16254717111587524 -0.14649470150470734 -0.372894287109375 0.9552348852157593 0.04188612848520279 -0.2928681969642639
0.10975605249404907 0.32259121537208557 0.2697550356388092 0.666922390460968 -0.7444764375686646 -0.03113585151731968
-0.1199948638677597 0.04533363878726959 -0.1327342987060547 0.9981869459152222 0.0566946342587471 0.020211677998304367
-0.019684823229908943 0.14775721728801727 0.08551548421382904 0.8890097141265869 0.026681916788220406 -0.45711028575897217
0.09774288535118103 -0.023530635982751846 -0.4039161205291748 0.9469844698905945 -0.18308736383914948 0.26400649547576904
0.03653011471033096 0.25775858759880066 0.27122995257377625 0.7258131504058838 -0.6851596236228943 -0.06125056371092796
-0.05106278508901596 -0.4600793123245239 -0.33504706621170044 0.9401135444641113 0.11836899816989899 -0.31964877247810364
-0.042206279933452606 -0.5839394330978394 -0.41419273614883423 0.9293264150619507 -0.3447931110858917 0.1321745067834854
-0.12128150463104248 0.056507181376218796 -0.16636770963668823 0.9641164541244507 -0.05300365388393402 0.2601344585418701
-0.06634224206209183 -0.25144344568252563 -0.2319222241640091 0.9809297323226929 -0.007321220822632313 0.1942247897386551
0.013902358710765839 -0.04575113579630852 0.30260375142097473 0.9771009683609009 -0.06051894277334213 -0.2039880007505417
0.018044866621494293 0.6467801332473755 -0.010545104742050171 -0.916947603225708 -0.3175141513347626 -0.24164418876171112
-0.1925218403339386 0.2289220243692398 -0.39476004242897034 0.9814445376396179 0.15074104070663452 -0.11850608885288239
-0.04199959710240364 -0.5905672311782837 -0.4407697021961212 -0.9157650470733643 0.2681373655796051 -0.29912662506103516
-0.11109437048435211 -0.05527010187506676 -0.05431297793984413 0.8614638447761536 0.0912560373544693 -0.4995521605014801
-0.04898447543382645 0.11027592420578003 0.008913427591323853 0.9236853718757629 0.025813860818743706 -0.3822813034057617
-0.07883313298225403 0.3146635890007019 -0.15125203132629395 0.7197602987289429 -0.6670878529548645 -0.1921951025724411
-0.14303764700889587 0.178988516330719 -0.19193994998931885 0.8755268454551697 -0.043550118803977966 -0.4812028408050537
-0.17808181047439575 -0.15741713345050812 -0.43343666195869446 -0.8227396607398987 -0.5381835103034973 0.18291492760181427
-0.03145855665206909 0.6955626606941223 0.10503941774368286 0.9090574383735657 0.37217581272125244 0.18734925985336304
0.003476794809103012 0.6351719498634338 0.005184732377529144 0.9052349925041199 0.378832072019577 0.1924470216035843
-0.15705302357673645 0.15502355992794037 -0.21176820993423462 -0.7454736828804016 -0.5710696578025818 0.3437272608280182
-0.001478642225265503 0.12515036761760712 0.14754538238048553 0.9618479609489441 0.10560306161642075 -0.25238147377967834
0.011365305632352829 -0.01737983152270317 0.27822890877723694 0.9615137577056885 -0.18857815861701965 -0.19982387125492096
-0.10656802356243134 -0.11445976793766022 -0.06755086034536362 0.8535758852958679 0.23241926729679108 -0.4662504196166992
-0.01874173805117607 -0.4616461396217346 -0.26422592997550964 0.8475608825683594 0.4565029740333557 -0.2706393003463745
0.0021512359380722046 0.46105870604515076 0.05274432897567749 0.958399772644043 -0.2580797076225281 0.12192097306251526
0.013639390468597412 -0.032902758568525314 0.36563751101493835 0.9855568408966064 -0.13900837302207947 -0.09671760350465775
0.03733287751674652 0.4221588671207428 0.11568939685821533 -0.8465991020202637 -0.3870357573032379 0.36533987522125244
0.02045746147632599 0.06307967752218246 0.2602798342704773 0.9951207041740417 0.09108743071556091 -0.037917762994766235
-0.052834078669548035 0.3386002480983734 -0.11259632557630539 0.77483069896698 -0.5410628318786621 -0.3269379436969757
-0.058985840529203415 -0.34018316864967346 -0.20408910512924194 0.9093623161315918 0.3707646429538727 -0.1886632740497589
-0.01992494985461235 0.33253222703933716 -0.02239413931965828 0.845905601978302 -0.32006731629371643 -0.42661526799201965
-0.2104385793209076 -0.09574735164642334 -0.43716326355934143 -0.8416382670402527 0.5305918455123901 0.10058492422103882
-0.17745119333267212 0.18655620515346527 -0.3979971706867218 -0.9786406755447388 -0.10363805294036865 0.17754334211349487
0.02699246257543564 0.5433732867240906 0.053265899419784546 -0.9229746460914612 -0.018982265144586563 -0.38439229130744934
-0.051153767853975296 0.7467073202133179 0.10735704004764557 -0.9700973033905029 -0.2397180199623108 0.03803298622369766
0.0046519748866558075 0.05218962952494621 0.17730781435966492 0.9721235632896423 0.12375051528215408 0.19915184378623962
-0.008350688964128494 0.19539383053779602 0.03781498968601227 0.8805809617042542 -0.36941662430763245 -0.2968307435512543
0.051102474331855774 0.26259666681289673 0.2110590636730194 0.5783519148826599 -0.8146275877952576 -0.04348573088645935
0.08049742877483368 0.2951567769050598 0.26306554675102234 0.6718654632568359 -0.7403049468994141 -0.023354092612862587
-0.014609105885028839 0.6739792823791504 0.06041179597377777 0.9413554668426514 0.24673976004123688 0.23015089333057404
-0.07654329389333725 -0.09312355518341064 -0.03716239333152771 0.7186838984489441 0.13572914898395538 -0.6819612383842468
0.006231214851140976 -0.13766781985759735 0.36354318261146545 -0.9886497855186462 0.1459231674671173 0.03574896231293678
-0.04862333834171295 0.06810452044010162 -0.2399473339319229 0.6038898825645447 -0.16993366181850433 0.7787423133850098
-0.16239458322525024 -0.14714264869689941 -0.3644252419471741 0.9727372527122498 0.11134082823991776 -0.20343387126922607
0.02699246257543564 0.5433732867240906 0.053265899419784546 -0.9229746460914612 -0.018982265144586563 -0.38439229130744934
-0.08706267178058624 -0.16587579250335693 -0.08753716945648193 0.8812426924705505 0.2991656959056854 -0.3659389019012451
-0.11968588829040527 0.044021546840667725 -0.11558451503515244 0.9968116283416748 0.07889474928379059 -0.011922807432711124
0.016598116606473923 -0.07479636371135712 0.3357878625392914 -0.9824891686439514 -0.13884714245796204 0.12424369901418686
0.012824807316064835 0.5539911389350891 0.24954599142074585 -0.9729769229888916 -0.22796379029750824 0.03672013431787491
-0.06732723861932755 -0.6636512875556946 -0.4208783209323883 0.9097588658332825 -0.4151001572608948 0.005535576492547989
-0.0267706997692585 -0.5848415493965149 -0.4401775002479553 -0.9313480854034424 0.2661179304122925 -0.24853971600532532
-0.039831679314374924 -0.0040624067187309265 0.01754557341337204 0.6509706377983093 0.018394576385617256 -0.758880078792572
-0.05722567066550255 -0.37065795063972473 -0.25858476758003235 0.9967138171195984 0.08072324097156525 -0.00673257140442729
-0.11701111495494843 0.009823977947235107 -0.1182490810751915 0.9962629675865173 -0.07551691681146622 -0.041919827461242676
0.016373783349990845 0.10985117405653 0.22835513949394226 0.9995288252830505 0.019689979031682014 -0.023543542250990868
-0.011361539363861084 0.24337460100650787 0.10358616709709167 0.9913859963417053 -0.09001688659191132 -0.09513519704341888
0.07725069671869278 0.25506436824798584 -0.27367639541625977 0.7954944372177124 -0.600241482257843 0.08305884152650833
-0.15778377652168274 -0.0270131416618824 -0.16691021621227264 0.684616208076477 -0.4621663987636566 -0.5636513829231262
-0.17541208863258362 0.17224259674549103 -0.3222314715385437 0.9960747361183167 0.04488956183195114 -0.07628873735666275
-0.06619507074356079 -0.6741689443588257 -0.3958197832107544 0.8541406393051147 -0.27446451783180237 -0.4417159855365753
-0.00952184572815895 0.011068403720855713 0.03070816397666931 0.7150578498840332 0.11260666698217392 -0.6899362802505493
-0.06794911623001099 -0.23886971175670624 -0.283063679933548 -0.9270279407501221 0.22714020311832428 -0.29837313294410706
-0.06892912089824677 -0.19445793330669403 -0.07111862301826477 -0.7787739634513855 -0.35694247484207153 0.5158519148826599
-0.17408767342567444 0.15530969202518463 -0.323550820350647 0.9767890572547913 0.17325353622436523 -0.1259613186120987
-0.17373144626617432 0.14814257621765137 -0.34119391441345215 0.9887979626655579 0.11708395928144455 -0.09257334470748901
-0.07136726379394531 -0.1898541897535324 -0.24449710547924042 -0.7448796629905701 -0.3322813808917999 -0.5785701274871826
-0.10471593588590622 0.06379690766334534 -0.04367252439260483 0.8186789751052856 0.011919318698346615 -0.5741277933120728
-0.07302066683769226 -0.13683271408081055 -0.031881216913461685 0.7070665955543518 0.32253968715667725 -0.6293051242828369
0.09314374625682831 0.24818649888038635 -0.3009559214115143 0.8063933849334717 -0.5849851965904236 0.08672957867383957
-0.06375308334827423 -0.29118862748146057 -0.27845335006713867 -0.880149245262146 -0.17777769267559052 -0.4401503801345825
-0.10688639432191849 0.07301393151283264 -0.1641443967819214 0.9597747325897217 -0.057484596967697144 0.27482327818870544
-0.06608446687459946 -0.2640381455421448 -0.2937115430831909 0.8870566487312317 -0.0011404448887333274 0.46165919303894043
0.06609219312667847 -0.00323544442653656 -0.29476380348205566 0.6016110181808472 -0.26332491636276245 0.7541379928588867
-0.04168843850493431 -0.5918885469436646 -0.4234989285469055 -0.9351887702941895 0.25861603021621704 -0.24194979667663574
-0.12697863578796387 -0.014489296823740005 -0.12958648800849915 0.883539617061615 -0.400348037481308 -0.2430620640516281
0.025180496275424957 0.03125101327896118 0.44453686475753784 0.9752431511878967 -0.2029045671224594 -0.08792354166507721
-0.07898979634046555 0.3153288960456848 -0.15994790196418762 0.6961910724639893 -0.7023521661758423 -0.14838945865631104
-0.16467657685279846 -0.08669877052307129 -0.15524739027023315 0.8446354866027832 0.16985414922237396 -0.5076815485954285
-0.05349637195467949 -0.4209948480129242 -0.2798805832862854 0.8914647698402405 0.44970786571502686 0.055257126688957214
0.018044866621494293 0.6467801332473755 -0.010545104742050171 -0.916947603225708 -0.3175141513347626 -0.24164418876171112
-0.18932212889194489 0.1814987063407898 -0.44105270504951477 -0.9883561730384827 -0.1519516110420227 -0.007922183722257614
-0.11550593376159668 0.1898358166217804 -0.11175984144210815 0.9678977131843567 0.15881894528865814 -0.19480890035629272
-0.005829431116580963 0.565822422504425 0.0787525475025177 0.8717350959777832 0.15864264965057373 0.4635843336582184
-0.11685662716627121 0.009167931973934174 -0.10967419296503067 0.995245099067688 -0.06459284573793411 -0.07290350645780563
-0.00843638926744461 0.6005175709724426 0.0903785228729248 0.8957560658454895 0.13585160672664642 0.42327943444252014
-0.021847153082489967 -0.28362423181533813 -0.3287466764450073 -0.8491857051849365 -0.09133575856685638 -0.5201358795166016
-0.05753682553768158 -0.3693366050720215 -0.27585554122924805 0.9939350485801697 -0.006792849395424128 0.10975862294435501
-0.0011998936533927917 0.5107261538505554 0.10122759640216827 0.9818093180656433 0.1467408835887909 0.12048882246017456
0.12098158895969391 0.076031893491745 -0.4232429265975952 -0.9915277361869812 0.0034213780891150236 0.1298498511314392
-0.11767411977052689 0.2162327915430069 -0.1183595061302185 0.8781232833862305 -0.04619235917925835 -0.4761992394924164
0.06577561795711517 0.27297326922416687 0.1959635317325592 0.5687695145606995 -0.805980920791626 -0.1640000194311142
-0.19239377975463867 -0.10662198066711426 -0.3109923005104065 0.9075320363044739 0.37699127197265625 0.18510302901268005
-0.02589009888470173 -0.3849676549434662 -0.3544762134552002 0.9180573225021362 -0.20837335288524628 0.3372703492641449
-0.06416415423154831 -0.26069286465644836 -0.11102688312530518 -0.7708932161331177 -0.49724316596984863 0.39808642864227295
-0.034514106810092926 -0.4711763262748718 -0.33543094992637634 0.8723555207252502 0.1815195381641388 -0.45392346382141113
0.026296056807041168 0.5522769689559937 0.05395965278148651 -0.8959051370620728 -0.057842884212732315 -0.4404636025428772
-0.06592889130115509 -0.2646988332271576 -0.28507620096206665 0.9386227130889893 -0.01320244837552309 0.3446926772594452
-0.008878950029611588 0.20350296795368195 0.04730862379074097 0.8925445675849915 -0.3780438303947449 -0.24585965275764465
-0.04039033502340317 -0.1902143806219101 -0.2780676484107971 -0.8162782788276672 -0.020853199064731598 -0.5772823095321655
-0.043190840631723404 -0.5740084052085876 -0.4307926595211029 -0.9411444067955017 0.3070181906223297 -0.1413753777742386
-0.19254761934280396 -0.1227806806564331 -0.43077901005744934 -0.9105949401855469 -0.3662591576576233 0.19149696826934814
0.013590347021818161 0.3120778203010559 0.023290865123271942 0.804225742816925 -0.2828335464000702 -0.522710382938385
0.011469561606645584 -0.029554221779108047 0.20638582110404968 0.9644785523414612 -0.202377051115036 0.16977791488170624
-0.00952184572815895 0.011068403720855713 0.03070816397666931 0.7150578498840332 0.11260666698217392 -0.6899362802505493
0.004011671990156174 0.42362770438194275 -0.03939882293343544 0.950337290763855 -0.31108567118644714 0.009203058667480946
-0.1276455521583557 -0.005962509661912918 -0.12892210483551025 0.955755352973938 -0.2595791220664978 -0.1383848786354065
-0.03887143358588219 0.18027253448963165 0.00708162784576416 -0.8109717965126038 0.3137333393096924 0.4938583970069885
0.004864394664764404 0.2352442443370819 0.09584957361221313 0.9930857419967651 -0.07701236009597778 -0.08859884738922119
0.06589262187480927 0.11059335619211197 0.4417704939842224 -0.7663220763206482 0.3485715687274933 0.5396743416786194
0.026823021471500397 0.0007320530712604523 0.3799132704734802 0.9981581568717957 0.034930501133203506 -0.04959895834326744
0.044432029128074646 0.5127736330032349 -0.0016867220401763916 -0.9607140421867371 0.2525326907634735 -0.11513364315032959
0.015965603291988373 -0.054512869566679 0.41712459921836853 -0.9648737907409668 0.1439039260149002 0.21979579329490662
-0.19364002346992493 0.23930972814559937 -0.4195092022418976 0.9812169671058655 0.16424956917762756 -0.10116953402757645
-0.11535090208053589 0.189177468419075 -0.10315470397472382 0.977171778678894 0.12970896065235138 -0.16825848817825317
-0.17969757318496704 -0.10560280084609985 -0.22566145658493042 0.7479045391082764 0.6445492506027222 -0.15872961282730103
-0.0883006602525711 -0.14342892169952393 -0.04250603914260864 0.724068284034729 0.31458592414855957 -0.6138085126876831
0.031329430639743805 0.47143855690956116 -0.060141272842884064 -0.9152737259864807 0.3982214629650116 -0.06077560782432556
0.10567210614681244 0.2856915295124054 -0.31585460901260376 0.8595166206359863 -0.49594905972480774 0.12355415523052216
-0.0490928553044796 0.7203580141067505 0.10530398786067963 0.9267860054969788 0.37557166814804077 -0.0036845034919679165
-0.12117775529623032 0.061776380985975266 -0.12282712757587433 0.9977970719337463 0.061063893139362335 0.025925343856215477
-0.018168829381465912 -0.4756596088409424 -0.3090563714504242 0.8916632533073425 0.2630060911178589 -0.36846211552619934
-0.1232345700263977 0.09334973990917206 -0.08586299419403076 0.981653094291687 -0.1344355344772339 -0.13521917164325714
-0.049779828637838364 0.7291411757469177 0.10598833858966827 0.9573789834976196 0.2882675528526306 0.01809062622487545
-0.10513141751289368 -0.16052861511707306 -0.25228649377822876 -0.5183223485946655 -0.8522855043411255 0.07036636769771576
-0.036800090223550797 -0.4326179325580597 -0.27140557765960693 -0.815361499786377 -0.5337808132171631 0.2241954356431961
-0.11586692184209824 0.19709864258766174 -0.09388107061386108 0.8448247909545898 -0.3016713261604309 -0.44188857078552246
0.0045960433781147 0.40933385491371155 -0.0851258933544159 0.8477495312690735 -0.4997948408126831 0.17755483090877533
-0.01018797978758812 -0.5790345072746277 -0.3258587121963501 -0.9813600778579712 0.10541116446256638 0.16068845987319946
-0.1790313422679901 0.19892074167728424 -0.4482877552509308 -0.9849092364311218 -0.163028284907341 0.05809944495558739
-0.047519195824861526 0.09824809432029724 0.05182889103889465 0.9202118515968323 0.22617338597774506 -0.3194615840911865
0.010517295449972153 -0.02551034465432167 0.15353001654148102 0.9983870387077332 -0.017725836485624313 0.053935468196868896
-0.029231306165456772 0.6684466004371643 0.11181885004043579 0.9850183129310608 0.1296355426311493 0.11372581869363785
0.02783086895942688 -0.00943383201956749 0.39690566062927246 0.9972684383392334 0.04404236376285553 -0.05929454788565636
-0.06390638649463654 -0.2732875943183899 -0.1728162318468094 0.9537209272384644 0.23699462413787842 -0.18506711721420288
0.004915647208690643 0.4079766273498535 -0.06738632172346115 0.9068469405174255 -0.42058172821998596 0.027195971459150314
-0.0668637752532959 -0.665619432926178 -0.39515364170074463 0.849378228187561 -0.30919960141181946 -0.4277290999889374
-0.010048292577266693 0.01914966106414795 0.04016925394535065 0.7150578498840332 0.11260666698217392 -0.6899362802505493
-0.03269478678703308 0.29653599858283997 -0.017700154334306717 0.7611793279647827 -0.39664164185523987 -0.5131096243858337
-0.021246766671538353 0.34401124715805054 -0.05694695562124252 0.8524426221847534 -0.40880364179611206 -0.32591569423675537
0.007002051919698715 0.6024229526519775 0.08321090042591095 0.8887065052986145 0.11952953040599823 0.442621111869812
0.019068889319896698 0.45636019110679626 0.12554869055747986 0.8645044565200806 0.34368449449539185 -0.36676010489463806
-0.1633055955171585 -0.10943847894668579 -0.19109724462032318 0.8350654244422913 0.5076497197151184 -0.21203167736530304
-0.08947371691465378 -0.722104549407959 -0.3658388555049896 0.9195830225944519 -0.35081595182418823 -0.17690438032150269
-0.1070045679807663 0.2777334451675415 -0.12988241016864777 0.7702338099479675 -0.4253199100494385 -0.47522926330566406
-0.01035165786743164 0.6263691782951355 0.10131549835205078 0.8967764377593994 0.3279919922351837 0.29700708389282227
0.030901968479156494 0.48514658212661743 -0.005172066390514374 0.9031288027763367 -0.40372955799102783 0.1461533159017563
-0.08824768662452698 -0.7443345189094543 -0.4104347229003906 0.9582118391990662 -0.278612345457077 -0.06484740227460861
-0.09099604189395905 0.08900158107280731 -0.04034549742937088 0.7241499423980713 -0.03980395570397377 -0.6884929537773132
-0.13285449147224426 0.20842809975147247 -0.12865249812602997 0.9274057149887085 0.06770369410514832 -0.3678787648677826
-0.17398717999458313 0.14357420802116394 -0.3928038775920868 -0.9856011867523193 -0.10816428065299988 0.12996439635753632
0.02784976363182068 0.5337862968444824 0.06150245666503906 0.8827341794967651 -0.06550400704145432 0.4652843177318573
0.13123977184295654 0.40001457929611206 -0.3704233467578888 0.9143266677856445 0.2680610418319702 0.3035622835159302
0.007073991000652313 -0.14709241688251495 0.3716402053833008 -0.9890570044517517 0.1399778127670288 0.04660912603139877
-0.07767023891210556 -0.3031694293022156 -0.21076828241348267 0.9673053026199341 0.2368851900100708 -0.09058600664138794
0.017222370952367783 0.10036160796880722 0.23650801181793213 0.9985852241516113 0.03495747968554497 -0.040068674832582474
-0.18708845973014832 -0.012406613677740097 -0.2268889993429184 0.7856683731079102 -0.5598434805870056 -0.2632499635219574
-0.027555089443922043 -0.33157476782798767 -0.1403709053993225 -0.6833391189575195 -0.5090286731719971 0.5233903527259827
-0.05958600342273712 0.05922020226716995 -0.23238937556743622 0.5823809504508972 -0.3839065134525299 0.7165529727935791
-0.04800690338015556 -0.5018064975738525 -0.35567203164100647 0.9800804853439331 0.14238668978214264 -0.13844946026802063
0.008615091443061829 0.00016499310731887817 0.164392352104187 0.9958963394165039 -0.020728526636958122 0.08809471130371094
0.03663647174835205 0.43106260895729065 0.1163831502199173 -0.8452768325805664 -0.3809741735458374 0.37465423345565796
-0.13604572415351868 0.2333994209766388 -0.23021887242794037 0.8441440463066101 -0.535603404045105 -0.023446669802069664
0.01457199826836586 0.1410464495420456 0.2841392457485199 0.9973162412643433 -0.029981793835759163 -0.06679312139749527
0.017498254776000977 -0.07275301218032837 0.4245651960372925 -0.9686028957366943 0.06473905593156815 0.24003595113754272
-0.18723835051059723 0.16137130558490753 -0.40002337098121643 0.9969607591629028 0.06086120381951332 -0.048632267862558365
-0.08882023394107819 0.06251182407140732 -0.033722635358572006 0.7021435499191284 0.014328105375170708 -0.7118912935256958
0.003965005278587341 0.06097271293401718 0.17799216508865356 0.9918792843818665 -0.03528893366456032 0.12218882143497467
-0.03269478678703308 0.29653599858283997 -0.017700154334306717 0.7611793279647827 -0.39664164185523987 -0.5131096243858337
-0.11541549861431122 -0.0026617124676704407 -0.06746591627597809 -0.9585632085800171 0.03922060504555702 0.28216713666915894
-0.04381873458623886 -0.35088127851486206 -0.3173406720161438 -0.887772262096405 0.2315617799758911 -0.3977932631969452
-0.12247558683156967 0.2710018754005432 -0.15737423300743103 -0.9186475276947021 0.334728866815567 0.20986497402191162
-0.15304560959339142 -0.08106032013893127 -0.1284097582101822 0.7736228108406067 0.07987772673368454 -0.6285914778709412
-0.08633625507354736 0.2220434546470642 -0.08091986924409866 -0.7594162225723267 0.32212892174720764 0.5652608871459961
-0.18678438663482666 -0.013697873800992966 -0.21001142263412476 0.8093575835227966 -0.47383207082748413 -0.34702086448669434
-0.049460310488939285 0.07746417820453644 -0.24798861145973206 0.5860792398452759 -0.20680193603038788 0.7834181785583496
-0.0386703684926033 0.7850478291511536 0.09422732889652252 -0.9998005628585815 -0.011536643840372562 0.016300160437822342
-0.18075959384441376 -0.08423550426959991 -0.17306208610534668 0.8955793976783752 0.10845466703176498 -0.43148013949394226
0.010344188660383224 0.3494873046875 -0.0005622953176498413 0.8330145478248596 -0.005883991252630949 -0.5532197952270508
-0.050995055586099625 0.7460333704948425 0.11616632342338562 0.9740458726882935 0.18303309381008148 -0.1331670582294464
-0.0897807851433754 -0.7208005785942078 -0.3828827738761902 -0.9733566641807556 0.21868963539600372 -0.06893213838338852
-0.0030393563210964203 -0.0339970625936985 0.2744756042957306 0.9654257297515869 -0.15233947336673737 -0.2115321010351181
0.022525444626808167 0.03663993626832962 0.25821974873542786 0.9820024967193604 -0.1794738918542862 -0.058822836726903915
-0.041326191276311874 -0.5991768836975098 -0.44144052267074585 -0.9161357283592224 0.2539476454257965 -0.3101706802845001
-0.0551159493625164 -0.6166833639144897 -0.39966851472854614 0.9770471453666687 -0.18523287773132324 -0.10520236194133759
-0.19318227469921112 0.23736588656902313 -0.3941021263599396 -0.9796856641769409 -0.16770793497562408 0.10995467007160187
0.013193339109420776 0.1586729735136032 0.28551265597343445 0.9963476657867432 -0.0023562998976558447 -0.08535662293434143
0.022368527948856354 0.05496416240930557 0.3663543462753296 0.9964110851287842 0.062234338372945786 0.05737484619021416
-0.11436978727579117 0.17928119003772736 -0.08661291748285294 0.9795794486999512 0.004058205056935549 -0.2010163813829422
0.10797025263309479 0.05307483673095703 -0.35245761275291443 -0.7441818714141846 0.5941984057426453 -0.305158406496048
0.003476794809103012 0.6351719498634338 0.005184732377529144 0.9052349925041199 0.378832072019577 0.1924470216035843
-0.17556507885456085 0.1728922724723816 -0.3307231664657593 -0.9933061599731445 -0.04834798350930214 0.10490654408931732
-0.004818145185709 0.5556218028068542 0.09580308198928833 0.9122991561889648 0.15528759360313416 0.37894055247306824
-0.006656993180513382 0.19406725466251373 0.1706387996673584 0.9750791192054749 0.013661199249327183 -0.22143635153770447
-0.05347827076911926 0.01591235026717186 -0.008323244750499725 -0.6320862770080566 0.033588435500860214 0.7741696834564209
-0.05453203245997429 -0.40509676933288574 -0.26126813888549805 0.9446722865104675 0.3023289442062378 -0.12724561989307404
-0.023942526429891586 0.37305647134780884 -0.09013110399246216 -0.85678631067276 0.5141873955726624 0.0390988364815712
0.027671612799167633 -0.008757535368204117 0.3880660831928253 0.9985873103141785 0.0020785320084542036 -0.05309520289301872
-0.04824717342853546 0.7109010219573975 0.11342892050743103 -0.9340956211090088 -0.34705615043640137 0.08376969397068024
-0.014524251222610474 0.07907698303461075 0.06250134110450745 0.81742262840271 0.4090123772621155 -0.40562179684638977
-0.16224199533462524 -0.1477905958890915 -0.35595622658729553 0.9872514009475708 0.13677529990673065 0.08140739798545837
0.12702684104442596 0.4482664167881012 -0.40335845947265625 0.9062368273735046 0.27149808406829834 0.32407334446907043
0.003702037036418915 0.07382108271121979 0.2410259246826172 0.9846968650817871 0.06059829890727997 -0.1634010374546051
-0.11215068399906158 0.14693807065486908 -0.11510229110717773 0.9891178011894226 0.11864203959703445 -0.08700568974018097
0.021735504269599915 0.24205215275287628 0.240901380777359 0.8152020573616028 -0.5671766400337219 -0.11728712916374207
-0.14831416308879852 -0.1859680414199829 -0.4270230829715729 0.7595204710960388 0.6453168392181396 0.08182178437709808
0.09715054929256439 -0.009041864424943924 -0.357565313577652 -0.9555482864379883 0.21367497742176056 -0.2031514197587967
-0.17688949406147003 0.18982519209384918 -0.32940375804901123 0.9856395721435547 -0.0003213047457393259 -0.16886232793331146
-0.19198869168758392 -0.10273818671703339 -0.2514258027076721 0.7966692447662354 0.5434790253639221 -0.2644779086112976
0.014148872345685959 0.15461520850658417 0.3385499119758606 0.9871441721916199 0.025048065930604935 0.1578575074672699
0.0421212762594223 0.546452522277832 0.027979284524917603 -0.9741045832633972 0.013529953546822071 -0.22569245100021362
0.01632147654891014 0.1159592717885971 0.26440003514289856 0.9968116283416748 0.07889474928379059 -0.011922807432711124
-0.03643656522035599 -0.43993183970451355 -0.2894100546836853 0.8218559622764587 0.5225400328636169 -0.22694656252861023
0.013564154505729675 0.15121230483055115 0.26714685559272766 0.9973756670951843 0.049573227763175964 -0.05276494845747948
-0.11634242534637451 0.0012745559215545654 -0.11891523003578186 0.9938772916793823 -0.0921490266919136 -0.060962844640016556
-0.039238445460796356 0.18765664100646973 0.02525891363620758 0.7810630202293396 -0.43189099431037903 -0.4510107636451721
0.14515617489814758 0.025858350098133087 -0.37226226925849915 0.8302181959152222 -0.47794386744499207 0.2868928015232086
0.021302662789821625 -0.12410366535186768 0.4028405249118805 -0.9955032467842102 0.08349631726741791 0.044739458709955215
0.049118898808956146 0.014659520238637924 -0.2848971486091614 0.5005970001220703 -0.31796374917030334 0.8051718473434448
0.011310853064060211 -0.028880242258310318 0.19757652282714844 0.9577381610870361 -0.2320045530796051 0.17003394663333893
-0.018012162297964096 -0.4763248562812805 -0.3003605008125305 -0.9131452441215515 -0.25226277112960815 0.3202018737792969
-0.15452301502227783 -0.06347766518592834 -0.1355820894241333 0.8154069781303406 -0.1206735223531723 -0.5661708116531372
-0.1961279809474945 -0.04593238607048988 -0.22160090506076813 0.9457725286483765 -0.0491049624979496 -0.3210965394973755
-0.053743742406368256 0.17112436890602112 0.013654544949531555 0.8841740489006042 -0.2676476836204529 -0.3828849792480469
-0.030010316520929337 -0.3269387185573578 -0.3149639368057251 0.8545143008232117 -0.15569968521595 0.4955430030822754
0.023426339030265808 0.021042274311184883 0.23032769560813904 0.9713620543479919 -0.1782504767179489 -0.15710660815238953
0.018502652645111084 -0.08288410305976868 0.4414994716644287 -0.9690412878990173 0.023796524852514267 0.24574939906597137
0.010436013340950012 0.19392599165439606 0.28825947642326355 0.9936708807945251 -0.01691768690943718 -0.11104936897754669
0.005874451249837875 0.4039050042629242 -0.014167562127113342 0.9827537536621094 -0.1752561330795288 -0.05899455025792122
-0.043388232588768005 0.04006783664226532 0.012213550508022308 0.7275708317756653 0.1328686624765396 -0.6730427145957947
-0.14877313375473022 -0.18401899933815002 -0.4524982273578644 -0.7533798813819885 -0.6545920372009277 -0.0626738891005516
-0.05136461183428764 0.7534685730934143 0.13446930050849915 0.9466611742973328 0.14461331069469452 -0.2879575490951538
0.017051134258508682 0.28556910157203674 0.13722005486488342 -0.7842444181442261 0.4647667706012726 0.4110383689403534
-0.10384365916252136 -0.7480027675628662 -0.42810338735580444 0.9481747150421143 -0.3037922978401184 -0.09313922375440598
-0.13825702667236328 0.2656288146972656 -0.20182964205741882 -0.9314451217651367 0.28690457344055176 -0.22382068634033203
-0.07116331160068512 0.2299804538488388 -0.07037316262722015 0.8432754278182983 -0.12881307303905487 -0.521817684173584
-0.08092138171195984 -0.25498393177986145 -0.1637316644191742 0.9567475318908691 0.22157467901706696 -0.18851716816425323
-0.11369873583316803 0.17070163786411285 -0.08728141337633133 0.9939331412315369 0.055246468633413315 -0.09510347247123718
0.018760286271572113 0.08205880969762802 0.24397414922714233 0.9917340278625488 0.05572937801480293 -0.11557614058256149
-0.03165491297841072 -0.5063987374305725 -0.329458087682724 0.8773159384727478 0.04959307983517647 -0.4773440361022949
0.01702212169766426 -0.07073107361793518 0.39813730120658875 0.9976822733879089 0.016894729807972908 -0.06591366231441498
-0.15304560959339142 -0.08106032013893127 -0.1284097582101822 0.7736228108406067 0.07987772673368454 -0.6285914778709412
-0.17194807529449463 0.12926062941551208 -0.3170381188392639 -0.9522780179977417 -0.26498204469680786 0.15149611234664917
-0.028483472764492035 -0.5429471731185913 -0.30615395307540894 -0.9333598613739014 -0.1599365621805191 0.3213403522968292
-0.05136461183428764 0.7534685730934143 0.13446930050849915 0.9466611742973328 0.14461331069469452 -0.2879575490951538
0.013245642185211182 0.1525648981332779 0.24946776032447815 0.9968233704566956 0.06351853162050247 -0.04804674908518791
0.008101817220449448 0.2156102955341339 0.2365955412387848 -0.9692579507827759 0.21841885149478912 0.11327948421239853
-0.04868030920624733 -0.49319684505462646 -0.35500118136405945 0.9924027919769287 0.060155775398015976 -0.10732156783342361
0.028036490082740784 0.3293848931789398 0.03507731109857559 0.8769970536231995 -0.04611320421099663 -0.47827789187431335
-0.02046278491616249 -0.4369666874408722 -0.24480752646923065 -0.8571143746376038 -0.45338743925094604 0.24452945590019226
-0.03152323514223099 -0.30893340706825256 -0.3223087191581726 0.8610589504241943 -0.0992816835641861 0.49871888756752014
-0.017857789993286133 -0.4943513870239258 -0.40673762559890747 -0.8646846413612366 0.0416862852871418 -0.5005824565887451
0.013584937900304794 -0.04440317675471306 0.28498512506484985 -0.9528421759605408 0.12759403884410858 0.27533894777297974
0.0033199824392795563 0.4324711263179779 -0.038709770888090134 0.9406139254570007 -0.33808812499046326 0.030688198283314705
-0.08489449322223663 -0.19227278232574463 -0.08093749731779099 -0.8070328235626221 -0.34103381633758545 0.4820724427700043
-0.05323859676718712 -0.43358951807022095 -0.3416699171066284 -0.9970329403877258 0.07652842253446579 0.00828553270548582
-0.17383195459842682 0.15987806022167206 -0.2719408869743347 0.9404564499855042 0.33989667892456055 0.0034400944132357836
0.01997969299554825 0.06510856002569199 0.23376122117042542 0.9779499769210815 0.06351413577795029 -0.19894658029079437
-0.2091306746006012 -0.11246916651725769 -0.4384661912918091 -0.9763936996459961 -0.20346997678279877 0.07249340415000916
-0.2097846269607544 -0.10410825908184052 -0.43781474232673645 -0.9968979954719543 0.03408382460474968 -0.0709410160779953
-0.1749553680419922 0.15334002673625946 -0.4091275930404663 -0.9950992465019226 -0.08903340995311737 0.04301794618368149
