ply
format ascii 1.0
element vertex 396
property float x
property float y
property float z
property float nx
property float ny
property float nz
end_header
0.08163493126630783 0.32179373502731323 0.1850304901599884 0.8418505787849426 -0.47439539432525635 -0.2573648989200592
-0.16259944438934326 -0.14727164804935455 -0.2485634684562683 -0.6366302371025085 -0.7679548859596252 0.07033704966306686
0.028121989220380783 0.5294433832168579 0.1738901436328888 -0.6021341681480408 -0.2727402448654175 0.7503647208213806
0.2469610720872879 0.1529180109500885 -0.45202410221099854 -0.35397326946258545 -0.11950221657752991 0.927589476108551
0.1520979255437851 -0.06254711002111435 -0.4829533100128174 -0.5628610253334045 -0.07369595021009445 0.8232596516609192
-0.025453917682170868 -0.06462422013282776 -0.010538414120674133 -0.4503950774669647 0.11495738476514816 0.885397732257843
-0.008195329457521439 -0.16218167543411255 -0.01899886131286621 -0.7657738924026489 -0.5421038866043091 0.34599676728248596
0.21491968631744385 0.07575873285531998 -0.42743217945098877 0.12077490240335464 0.1541997194290161 0.9806303977966309
-0.0305008664727211 0.1222725659608841 0.03979607671499252 -0.8795956373214722 -0.000996047630906105 0.4757210612297058
-0.19200070202350616 0.16698729991912842 -0.420009583234787 -0.8485094308853149 -0.5030187368392944 0.1643289029598236
-0.1356244683265686 0.23507189750671387 -0.14360082149505615 0.8422044515609741 -0.23825703561306 -0.4836580753326416
-0.17730812728405 0.2831038534641266 -0.44218581914901733 -0.8914266228675842 0.4226088225841522 0.1635855734348297
-0.14209377765655518 0.16436296701431274 -0.15148021280765533 -0.8983753323554993 -0.2798762321472168 0.33851319551467896
0.25365158915519714 0.09051669389009476 -0.422345906496048 0.22650101780891418 0.4079555571079254 0.8844600319862366
-0.2155544012784958 -0.09045261144638062 -0.44869717955589294 -0.988404393196106 0.04105597734451294 0.1461886316537857
-0.038012631237506866 -0.011094696819782257 -0.006180591881275177 0.09120355546474457 0.10204117745161057 -0.990590512752533
0.19132587313652039 0.022169504314661026 -0.4351246953010559 -0.03392043709754944 -0.13963544368743896 0.9896218180656433
-0.1316676288843155 0.02447410672903061 -0.07028976082801819 -0.9115764498710632 -0.37896454334259033 0.15941861271858215
0.04816281422972679 0.4675752520561218 0.16936224699020386 -0.4805578589439392 -0.4310639500617981 0.7637067437171936
0.004858563654124737 0.134628564119339 0.10347474366426468 0.9432268142700195 -0.1373485028743744 -0.30242112278938293
-0.021271269768476486 0.6954647302627563 0.15884095430374146 0.324944406747818 -0.6619551777839661 -0.6754454374313354
-0.0919475108385086 0.2194853276014328 -0.07809138298034668 0.8471717834472656 -0.17311395704746246 -0.5023261904716492
-0.15926378965377808 -0.19615188241004944 -0.3873656094074249 -0.3020351231098175 -0.8415061831474304 0.4479309916496277
-0.14021599292755127 -0.06300707906484604 -0.14318197965621948 -0.38912883400917053 0.4986770451068878 0.7745321393013
-0.012741557322442532 0.26511597633361816 0.02459869533777237 -0.9484490752220154 0.2813482880592346 0.14590203762054443
0.07318160682916641 0.4111531376838684 0.1382501721382141 0.09120355546474457 0.10204117745161057 -0.990590512752533
-0.047094088047742844 -0.7230911254882812 -0.3958282172679901 0.163826122879982 -0.27048996090888977 0.9486812949180603
0.01548959594219923 0.15819162130355835 0.16208776831626892 -0.9371180534362793 -0.15666155517101288 0.3118765354156494
-0.011683869175612926 -0.4171229302883148 -0.23091936111450195 -0.324028879404068 -0.7706039547920227 0.5487940311431885
-0.03553437814116478 -0.6968351602554321 -0.3920592665672302 -0.27665919065475464 0.4854188561439514 -0.8293541073799133
-0.047456346452236176 0.270952969789505 -0.03714654594659805 -0.8291577696800232 0.2861986756324768 0.4801954925060272
0.06521608680486679 0.6539664268493652 0.19013258814811707 -0.5825793743133545 -0.8004757761955261 0.1408541351556778
0.03211497142910957 0.37892746925354004 0.09960273653268814 -0.8582607507705688 -0.28528136014938354 0.42661812901496887
-0.12890997529029846 0.15778318047523499 -0.11939731985330582 -0.8970523476600647 -0.2608621418476105 0.35671859979629517
0.052533671259880066 0.563079833984375 0.207206130027771 -0.337629109621048 -0.5302706956863403 0.7777014970779419
0.015015567652881145 0.4755849540233612 0.10798513144254684 -0.8272333145141602 0.008883902803063393 -0.5617884397506714
0.06033845990896225 0.17668485641479492 0.36528974771499634 0.203819140791893 -0.26670581102371216 -0.9419797658920288
0.04207469895482063 0.6819453239440918 0.1908840835094452 0.09120355546474457 0.10204117745161057 -0.990590512752533
0.08990776538848877 0.6429322957992554 0.19126930832862854 -0.7119981050491333 -0.5499145984649658 0.4366379976272583
-0.1943710595369339 -0.05815791338682175 -0.21076220273971558 0.831510066986084 -0.3765771985054016 -0.40838783979415894
0.29139602184295654 0.432304322719574 -0.5256238579750061 0.8612589836120605 -0.4357672333717346 -0.2614189386367798
-0.10472284257411957 0.17659923434257507 -0.08368532359600067 -0.09120355546474457 -0.10204117745161057 0.990590512752533
-0.1592145562171936 0.18559801578521729 -0.21396276354789734 -0.9382848143577576 -0.24613289535045624 0.24298182129859924
0.06482499092817307 0.35837554931640625 0.1004972830414772 0.5122873783111572 0.09192616492509842 -0.8538801670074463
-0.056577637791633606 -0.5249724388122559 -0.31319937109947205 -0.46764615178108215 -0.7424243688583374 0.4797012209892273
0.26056018471717834 0.3015553653240204 -0.4354608356952667 -0.3848368227481842 0.3986789286136627 0.832439661026001
0.036485180258750916 -0.2282399833202362 -0.1754806786775589 -0.8986387252807617 0.06964662671089172 -0.43312564492225647
0.24526120722293854 0.1343383491039276 -0.4540944993495941 -0.8084433674812317 0.3617691397666931 0.46426549553871155
0.0017822235822677612 0.19505268335342407 0.10941582173109055 -0.9635617136955261 -0.1162215918302536 0.24091793596744537
-0.13659271597862244 -0.15889354050159454 -0.24736621975898743 -0.6232420802116394 -0.7799690365791321 0.05672387033700943
-0.16059105098247528 0.13831043243408203 -0.31754449009895325 -0.7903110384941101 -0.612704873085022 -0.0011272812262177467
-0.15219762921333313 0.20648419857025146 -0.17961838841438293 -0.9433193206787109 0.05528230965137482 0.32725003361701965
0.03281058743596077 0.67432701587677 0.18924635648727417 -0.09120355546474457 -0.10204117745161057 0.990590512752533
-0.10472284257411957 0.17659923434257507 -0.08368532359600067 -0.09120355546474457 -0.10204117745161057 0.990590512752533
0.014314754866063595 0.5201286673545837 0.14405593276023865 0.764991819858551 0.22659887373447418 -0.6028603315353394
-0.030153844505548477 -0.020596295595169067 -0.006435796618461609 0.09120355546474457 0.10204117745161057 -0.990590512752533
-0.16228853166103363 0.019666198641061783 -0.3299223780632019 -0.9804903268814087 0.15502864122390747 -0.12085070461034775
-0.002695515751838684 0.660798192024231 0.18458369374275208 0.09120355546474457 0.10204117745161057 -0.990590512752533
-0.005718130152672529 -0.34285029768943787 -0.15962554514408112 0.09515422582626343 0.20369920134544373 -0.9743984937667847
-0.17238831520080566 0.1634937822818756 -0.3515267074108124 -0.9375784993171692 -0.34746822714805603 -0.014578564092516899
-0.1152762621641159 -0.17501945793628693 -0.28255495429039 -0.5534942746162415 -0.8224518895149231 0.13121338188648224
-0.010022391565144062 0.20192229747772217 0.07748977094888687 -0.9828978776931763 0.0021612700074911118 0.18413902819156647
-0.050644371658563614 0.23610810935497284 -0.041029445827007294 0.834840714931488 -0.21659991145133972 -0.5060884952545166
-0.22165131568908691 -0.11261977255344391 -0.4160517752170563 -0.9532886147499084 0.01707960106432438 0.30157768726348877
0.03103727102279663 0.6078063249588013 0.2098342478275299 0.09120355546474457 0.10204117745161057 -0.990590512752533
-0.08401652425527573 0.11267651617527008 -0.08836360275745392 -0.8919851779937744 -0.1506929248571396 0.42620909214019775
0.3011508584022522 0.2318446934223175 -0.4389045834541321 -0.7589099407196045 0.07951255887746811 -0.6463230848312378
-0.18073156476020813 0.14354142546653748 -0.4568774104118347 -0.7156223654747009 -0.6027464270591736 0.3529607355594635
-0.061630502343177795 0.2606067657470703 -0.07106415927410126 0.6148649454116821 -0.2462688386440277 -0.7491947412490845
-0.024347616359591484 0.755888819694519 0.16478204727172852 -0.7631413340568542 -0.42035019397735596 0.4908370077610016
-0.005796114448457956 0.6269088983535767 0.18080729246139526 0.20663399994373322 -0.09143608063459396 -0.974136471748352
0.269018292427063 0.29132914543151855 -0.4357354938983917 -0.04605376347899437 0.21510738134384155 0.9755039215087891
-0.11589635163545609 0.15122053027153015 -0.08732834458351135 -0.7914714217185974 -0.04464885964989662 0.6095731854438782
-0.04605622589588165 -0.19513142108917236 -0.08502919971942902 -0.673284649848938 -0.14737066626548767 0.7245479226112366
-0.03358839079737663 0.6040537357330322 0.1758941411972046 0.034376949071884155 -0.1431601345539093 0.9891023635864258
-0.1383751928806305 -0.21330395340919495 -0.41875606775283813 -0.12525855004787445 -0.8377603888511658 0.5314770936965942
0.260375052690506 0.061858952045440674 -0.4246789216995239 0.45669257640838623 0.05373295396566391 0.8880003690719604
-0.1356244683265686 0.23507189750671387 -0.14360082149505615 0.8422044515609741 -0.23825703561306 -0.4836580753326416
-0.0032648881897330284 0.3686950206756592 0.036140941083431244 -0.8452486991882324 -0.2858375906944275 0.45149919390678406
0.04816281422972679 0.4675752520561218 0.16936224699020386 -0.4805578589439392 -0.4310639500617981 0.7637067437171936
-0.0034125130623579025 -0.478484183549881 -0.2680255174636841 0.09120355546474457 0.10204117745161057 -0.990590512752533
-0.06457943469285965 -0.06513155996799469 -0.0457397997379303 0.6627560257911682 0.3915197253227234 -0.6383312344551086
-0.061824698001146317 -0.37622764706611633 -0.23132318258285522 -0.3194662630558014 -0.6375754475593567 0.7010270953178406
-0.022267183288931847 -0.5992445945739746 -0.3492380678653717 0.09364064782857895 0.15674848854541779 -0.9831893444061279
-0.036125410348176956 -0.041732288897037506 -0.04070967435836792 -0.6611943244934082 -0.3010340631008148 0.6871684789657593
-0.06313002854585648 0.09596437215805054 0.0025350525975227356 -0.9028694033622742 -0.07754504680633545 0.4228636622428894
-0.058575667440891266 0.24569736421108246 -0.040771886706352234 0.8306050300598145 -0.2373117059469223 -0.5037643909454346
-0.1316676288843155 0.02447410672903061 -0.07028976082801819 -0.9115764498710632 -0.37896454334259033 0.15941861271858215
-0.0984259843826294 -0.1898632049560547 -0.08930819481611252 0.5309967398643494 -0.1266183853149414 -0.8378605842590332
-0.18817801773548126 0.2532404661178589 -0.3752824664115906 0.939497172832489 -0.08905468136072159 -0.33077824115753174
0.08715764433145523 0.46986186504364014 0.14558455348014832 -0.8379120230674744 0.3534148633480072 -0.4159344434738159
-0.044291988015174866 0.015670068562030792 -0.004001684486865997 0.09120355546474457 0.10204117745161057 -0.990590512752533
0.06060291826725006 0.6971820592880249 0.19415950775146484 -0.49255695939064026 -0.0020850140135735273 0.8702777624130249
-0.027387190610170364 0.6718323230743408 0.1834469735622406 0.1717793047428131 -0.1829327791929245 -0.9680018424987793
-0.2155544012784958 -0.09045261144638062 -0.44869717955589294 -0.988404393196106 0.04105597734451294 0.1461886316537857
0.20650507509708405 0.08593234419822693 -0.427158921957016 0.10077553987503052 -0.5137878060340881 -0.8519779443740845
0.05750229209661484 0.6632927656173706 0.19038307666778564 -0.5212805271148682 0.2188190370798111 0.8248544335365295
0.03751981258392334 0.39756500720977783 0.13356706500053406 0.34532150626182556 0.09402979165315628 -0.9337620139122009
-0.03427814692258835 -0.4213451147079468 -0.26498138904571533 -0.1173924133181572 -0.33105605840682983 0.9362804293632507
0.03495320677757263 -0.5160723924636841 -0.30385535955429077 -0.7355251312255859 0.551058292388916 -0.39412882924079895
0.007119159214198589 -0.29975613951683044 -0.15400446951389313 0.38340404629707336 -0.29603374004364014 0.874851644039154
-0.18303491175174713 -0.03240983933210373 -0.207066148519516 -0.6910863518714905 0.5945215821266174 0.4110276401042938
-0.07962168008089066 -0.3744373023509979 -0.23277731239795685 -0.8685209155082703 -0.26143592596054077 0.42109712958335876
-0.18568289279937744 -0.11669094860553741 -0.18444493412971497 -0.8613399863243103 -0.37790530920028687 0.3395306169986725
-0.1937301754951477 -0.1069614440202713 -0.18418362736701965 -0.93581622838974 -0.04300108924508095 0.34985554218292236
-0.03268498182296753 -0.502556562423706 -0.2732003331184387 0.09120355546474457 0.10204117745161057 -0.990590512752533
0.02027030661702156 0.5833510160446167 0.2063237726688385 0.28530892729759216 0.6346149444580078 -0.7182358503341675
-0.004844346083700657 0.35143181681632996 0.0342172309756279 -0.9423692226409912 -0.11415578424930573 0.3144977390766144
0.10378506779670715 0.6073349714279175 0.1888800859451294 -0.9996574521064758 -0.024469995871186256 -0.009285659529268742
-0.05876953527331352 -0.2378094494342804 -0.09059599786996841 0.08496995270252228 -0.6065136194229126 0.7905197143554688
-0.003800974227488041 0.17540442943572998 0.07533096522092819 -0.9579105377197266 0.01808270253241062 0.2864968180656433
-0.028497561812400818 0.18830174207687378 0.015235371887683868 0.850670337677002 -0.2541385591030121 -0.460188627243042
-0.059856414794921875 -0.10937610268592834 -0.04986260086297989 -0.9041492938995361 -0.24023064970970154 0.35327500104904175
0.042191095650196075 0.448621928691864 0.1392565667629242 0.7519594430923462 0.21538013219833374 -0.6230315566062927
-0.06804484128952026 -0.20532822608947754 -0.3799123466014862 -0.13529087603092194 -0.8722188472747803 0.47003263235092163
-0.03268498182296753 -0.502556562423706 -0.2732003331184387 0.09120355546474457 0.10204117745161057 -0.990590512752533
-0.10645448416471481 0.20878688991069794 -0.11207593232393265 0.8235369324684143 -0.2245510369539261 -0.5209258794784546
-0.14021599292755127 -0.06300707906484604 -0.14318197965621948 -0.38912883400917053 0.4986770451068878 0.7745321393013
0.0070280758664011955 0.057820066809654236 0.03661208599805832 -0.6433684229850769 -0.3506217300891876 0.6805450320243835
-0.045238129794597626 -0.5514500141143799 -0.3464296758174896 -0.9169475436210632 -0.19884605705738068 0.3459300100803375
-0.1200014278292656 0.26909682154655457 -0.23724135756492615 -0.8886743187904358 0.45370301604270935 0.06641896814107895
-0.0011829175055027008 0.583693265914917 0.1767803430557251 0.5152941346168518 0.43812236189842224 -0.7365601062774658
-0.12773454189300537 -0.16712017357349396 -0.1843043863773346 -0.6734954118728638 -0.714812695980072 0.18827325105667114
0.04129781946539879 -0.2733239233493805 -0.1796816885471344 0.7327775359153748 -0.012908624485135078 0.680345892906189
0.06484409421682358 0.604405403137207 0.21259650588035583 0.09120355546474457 0.10204117745161057 -0.990590512752533
-0.06804484128952026 -0.20532822608947754 -0.3799123466014862 -0.13529087603092194 -0.8722188472747803 0.47003263235092163
-0.026931442320346832 0.7732473611831665 0.13478541374206543 -0.6703754663467407 -0.523186981678009 0.5261865258216858
0.2502692937850952 0.05354844033718109 -0.4264654219150543 0.33212217688560486 -0.09008101373910904 0.9389250874519348
-0.07081246376037598 0.1543426215648651 -0.023705534636974335 0.8918701410293579 -0.10382524132728577 -0.4402135908603668
0.010133172385394573 -0.0031694918870925903 0.030615411698818207 -0.6410711407661438 -0.3729766011238098 0.6707580089569092
0.25703635811805725 -0.0449775829911232 -0.4714818000793457 -0.6086611151695251 0.023989237844944 -0.7930675148963928
-0.02941926196217537 -0.46686235070228577 -0.26922276616096497 -0.09120355546474457 -0.10204117745161057 0.990590512752533
0.09293295443058014 0.48872238397598267 0.17566260695457458 -0.5659204721450806 0.11322987824678421 -0.816647469997406
0.29293298721313477 0.3802242577075958 -0.4598667621612549 -0.6019177436828613 0.2722285985946655 0.7507240176200867
0.003947249613702297 0.07105697691440582 0.06529546529054642 -0.5930376648902893 -0.5384376049041748 0.5986579060554504
-0.007761127781122923 0.31970807909965515 -0.028469525277614594 -0.6275213360786438 -0.06531193107366562 0.7758552432060242
0.02391013130545616 -0.42070358991622925 -0.22801107168197632 0.3486633896827698 0.6647751927375793 -0.6606874465942383
0.01397863682359457 -0.6561180353164673 -0.3833063244819641 -0.814781129360199 0.41235288977622986 -0.4075497090816498
0.2164870947599411 0.12785761058330536 -0.4574113190174103 0.13100790977478027 -0.672183096408844 -0.728702187538147
-0.06991065293550491 -0.3664513826370239 -0.23106059432029724 -0.8685209155082703 -0.26143592596054077 0.42109712958335876
-0.07303813099861145 -0.20120853185653687 -0.08813942968845367 -0.1264772266149521 -0.10209044069051743 0.9867021441459656
0.2571190595626831 0.16127148270606995 -0.45022836327552795 -0.2216804027557373 -0.15702630579471588 0.9623931646347046
-0.08411864936351776 -0.12976275384426117 -0.0817999467253685 0.7703059315681458 0.1692078709602356 -0.6148149967193604
0.0740676149725914 0.6119904518127441 0.21422705054283142 -0.08581310510635376 0.08436473459005356 -0.9927329421043396
-0.04563380032777786 0.7578673362731934 0.1314792037010193 -0.6884743571281433 0.05430245026946068 0.723224937915802
-0.18303491175174713 -0.03240983933210373 -0.207066148519516 -0.6910863518714905 0.5945215821266174 0.4110276401042938
0.0633283257484436 0.20936386287212372 0.36893129348754883 0.18847836554050446 0.2155023068189621 -0.9581412672996521
0.006113124080002308 -0.41891324520111084 -0.22946521639823914 0.31887245178222656 0.6541637778282166 -0.6858500242233276
-0.012403827160596848 -0.2655658423900604 -0.12073314934968948 -0.1524520069360733 0.5550530552864075 -0.8177252411842346
0.08513028919696808 0.48579293489456177 0.11549211293458939 0.18659158051013947 0.4362832009792328 -0.8802503347396851
0.021813809871673584 0.6002213954925537 0.20820370316505432 0.32379522919654846 0.2661506235599518 -0.9079210162162781
0.15039806067943573 -0.08112679421901703 -0.48502370715141296 -0.5628610253334045 -0.07369595021009445 0.8232596516609192
-0.13281504809856415 0.12386898696422577 -0.18634405732154846 -0.916581392288208 -0.35250020027160645 0.1887381225824356
0.0633283257484436 0.20936386287212372 0.36893129348754883 0.18847836554050446 0.2155023068189621 -0.9581412672996521
-0.061918795108795166 -0.1759529411792755 -0.0845140814781189 0.4558139145374298 0.2241213172674179 -0.8613961935043335
0.009442954324185848 0.13800832629203796 0.13184845447540283 -0.9637492299079895 0.030635369941592216 0.26504504680633545
-0.1970069855451584 0.21388542652130127 -0.4156395196914673 -0.9488675594329834 -0.015393516048789024 0.3152989447116852
-0.0710272416472435 0.009648535400629044 -0.007083475589752197 0.09120355546474457 0.10204117745161057 -0.990590512752533
-0.038599781692028046 -0.5267809629440308 -0.3117304742336273 -0.4573799669742584 -0.7443753480911255 0.4865274429321289
0.06670013070106506 0.2749849557876587 0.29319095611572266 0.7985860109329224 -0.5106858611106873 -0.318528413772583
0.011200579814612865 0.4860907196998596 0.1402629315853119 0.5161851644515991 -0.3747784197330475 0.7701259255409241
-0.18079881370067596 -0.12967069447040558 -0.3825000822544098 -0.8012264370918274 -0.31249552965164185 0.5102770328521729
0.09297066926956177 0.5827720165252686 0.18535417318344116 -0.6166842579841614 0.41285860538482666 -0.6702598333358765
-0.002733200788497925 0.5667484998703003 0.17489215731620789 -0.32781556248664856 -0.5477527976036072 0.7697427272796631
0.2979757487773895 0.22894011437892914 -0.47498631477355957 -0.7420583367347717 0.05473727360367775 -0.6680967211723328
-0.08046547323465347 0.0018869712948799133 -0.008751973509788513 -0.6796903610229492 -0.461162805557251 0.5703944563865662
0.025893520563840866 0.40544527769088745 0.10176154226064682 -0.9001011848449707 -0.2707538604736328 0.3413359224796295
-0.061366401612758636 0.06585351377725601 -0.031951144337654114 -0.7567550539970398 0.47840285301208496 0.4454801678657532
0.009353130124509335 0.18434733152389526 0.16421708464622498 -0.9568257331848145 -0.14948910474777222 0.24927417933940887
0.2655358612537384 0.04792076349258423 -0.461129754781723 -0.9367179870605469 0.013143693096935749 -0.34983810782432556
-0.035910993814468384 -0.4391922056674957 -0.266970157623291 0.09120355546474457 0.10204117745161057 -0.990590512752533
-0.035100989043712616 0.6811586618423462 0.18369749188423157 -0.27237099409103394 0.426085889339447 0.8627079129219055
-0.0017238827422261238 0.29014068841934204 0.02819090336561203 0.9756630659103394 -0.21898408234119415 -0.011289900168776512
-0.08268550783395767 -0.2608516216278076 -0.18981203436851501 -0.9320912957191467 -0.25270554423332214 0.25951069593429565
-0.025415528565645218 0.031193196773529053 -0.0006646811962127686 -0.29825612902641296 -0.06323262304067612 0.9523890614509583
-0.10163614898920059 -0.07990440726280212 -0.10982368886470795 0.7993773818016052 -0.100258007645607 -0.592405378818512
-0.0009455811232328415 -0.6650668382644653 -0.35405537486076355 0.6158287525177002 -0.42951101064682007 0.6605113744735718
-0.013114083558321 0.26264798641204834 0.0834605023264885 -0.9851695895195007 0.06976024806499481 0.15676242113113403
-0.022267183288931847 -0.5992445945739746 -0.3492380678653717 0.09364064782857895 0.15674848854541779 -0.9831893444061279
-0.01349457073956728 -0.38377150893211365 -0.19610367715358734 -0.2094537913799286 -0.8494511246681213 0.4843159317970276
-0.16071200370788574 -0.16328467428684235 -0.3486230671405792 -0.6833048462867737 -0.6512531042098999 0.3300968110561371
-0.05125351995229721 -0.2798769772052765 -0.488572895526886 -0.17560294270515442 -0.8893545269966125 0.42215171456336975
-0.06016970053315163 0.22827491164207458 -0.04271334409713745 0.811021625995636 -0.31766277551651 -0.49125778675079346
-0.19868940114974976 0.19549685716629028 -0.41768863797187805 -0.9361956715583801 -0.23516146838665009 0.26122188568115234
-0.1903182864189148 0.1853758543729782 -0.4179604649543762 -0.9289480447769165 -0.29256322979927063 0.22685274481773376
-0.20428425073623657 0.19254638254642487 -0.4539978802204132 -0.9642115235328674 -0.2413201630115509 0.10982170701026917
0.013429454527795315 0.4125710427761078 0.0737445130944252 -0.8409178256988525 -0.22305552661418915 0.493055135011673
-0.04406891018152237 0.7749713659286499 0.13338515162467957 0.8381150364875793 0.09822878986597061 -0.5365764498710632
0.3064773678779602 0.2186613231897354 -0.4752624034881592 -0.7443020343780518 0.04964262992143631 -0.6659955978393555
-0.1300380975008011 0.13291731476783752 -0.4178142547607422 -0.5177149772644043 -0.8419165015220642 0.15214402973651886
0.013429454527795315 0.4125710427761078 0.0737445130944252 -0.8409178256988525 -0.22305552661418915 0.493055135011673
0.24857811629772186 0.03506433218717575 -0.4285251796245575 0.5570427775382996 -0.45594140887260437 0.6941331028938293
-0.14983417093753815 -0.07091660797595978 -0.14488227665424347 -0.16468343138694763 0.04403185099363327 0.9853631854057312
0.08556264638900757 0.3583807945251465 0.1339539885520935 -0.13978730142116547 -0.12745389342308044 0.9819445013999939
-0.0029217489063739777 0.09650063514709473 0.126434326171875 -0.938884437084198 -0.1004175916314125 0.32926034927368164
-0.050644371658563614 0.23610810935497284 -0.041029445827007294 0.834840714931488 -0.21659991145133972 -0.5060884952545166
-0.012737029232084751 -0.21606603264808655 -0.08411799371242523 0.5935300588607788 -0.5522564053535461 0.5854356288909912
-0.03461543470621109 -0.21696189045906067 -0.058621130883693695 -0.25497063994407654 -0.570085346698761 0.7810203433036804
0.005651901476085186 -0.5929564237594604 -0.34601980447769165 0.43043601512908936 -0.5731766223907471 0.697275698184967
-0.13220736384391785 -0.07268981635570526 -0.1434420496225357 0.5904160141944885 -0.16508004069328308 -0.7900364398956299
0.09646237641572952 0.4775136709213257 0.14722946286201477 -0.8896946310997009 0.4088172912597656 0.20325332880020142
-0.09299485385417938 0.00775802880525589 -0.04084761440753937 0.619327187538147 0.45947906374931335 -0.6366419196128845
-0.011831986717879772 -0.14831872284412384 0.01364118605852127 -0.7025896906852722 -0.3564808666706085 0.6158645153045654
-0.007116966415196657 -0.09678401052951813 0.01938391476869583 -0.8636477589607239 -0.05561172217130661 0.5010188817977905
-0.10157524794340134 -0.1280066817998886 -0.083226278424263 -0.7862467765808105 -0.131704181432724 0.6037135720252991
0.054572127759456635 0.3958495557308197 0.1349603533744812 0.09120355546474457 0.10204117745161057 -0.990590512752533
0.10113366693258286 0.5285705924034119 0.15291893482208252 0.5203705430030823 -0.2674659192562103 0.8109725713729858
-0.16260340809822083 0.0017655491828918457 -0.2687016427516937 -0.6163924336433411 0.7231419086456299 0.3116505742073059
-0.04436510056257248 0.6735403537750244 0.18205976486206055 -0.2698993980884552 0.31417882442474365 0.9101900458335876
-0.16059105098247528 0.13831043243408203 -0.31754449009895325 -0.7903110384941101 -0.612704873085022 -0.0011272812262177467
0.024745959788560867 -0.3015293478965759 -0.15256422758102417 0.6313160061836243 -0.07675173878669739 0.7717183828353882
-0.004998025484383106 -0.03183792531490326 -0.005277708172798157 0.39896389842033386 0.14099425077438354 -0.9060620665550232
-0.015709776431322098 -0.6271945238113403 -0.35151347517967224 -0.396129310131073 0.03362322226166725 -0.917578935623169
-0.12238141149282455 -0.11315448582172394 -0.115158811211586 0.7387760877609253 0.04145650565624237 -0.6726747155189514
-0.15498436987400055 0.14184679090976715 -0.28511717915534973 -0.7319574356079102 -0.6654276251792908 0.1464391052722931
-0.013750918209552765 0.11932498216629028 0.10018493980169296 0.9248696565628052 -0.16438210010528564 -0.34292086958885193
-0.03756682947278023 -0.4055563807487488 -0.2321109175682068 0.27619996666908264 0.7324726581573486 -0.6222518682479858
-0.039525050669908524 0.2613637149333954 -0.03740410506725311 -0.7818224430084229 0.3669222295284271 0.5041049122810364
0.01857662945985794 0.1919323205947876 0.16584762930870056 -0.9224653840065002 -0.0819338709115982 0.37728559970855713
0.030718810856342316 -0.4999290406703949 -0.2670920789241791 0.4236295521259308 -0.34345558285713196 0.8381982445716858
0.05126337707042694 0.5014644861221313 0.17313864827156067 0.24945412576198578 0.37374642491340637 -0.8933567404747009
-0.04146437719464302 0.0973709225654602 0.036221541464328766 -0.7931302785873413 -0.3839779794216156 0.4727635383605957
-0.05522339791059494 0.3306361734867096 -0.0632605031132698 -0.7547759413719177 0.04840341582894325 0.6541945338249207
0.09182893484830856 0.5209187865257263 0.15127402544021606 -0.4760785400867462 0.35926908254623413 -0.8026674389839172
0.006342350505292416 0.10411900281906128 0.12807202339172363 -0.9635543823242188 -0.0004308803181629628 0.26751232147216797
-0.11837266385555267 -0.19685477018356323 -0.4152199923992157 -0.1488678753376007 -0.8207358717918396 0.5515713691711426
-0.14670279622077942 -0.20323553681373596 -0.4184856414794922 -0.30646881461143494 -0.8187994956970215 0.4854320287704468
-0.01639407128095627 0.1815306395292282 0.04719909280538559 0.8595301508903503 -0.17898301780223846 -0.47872015833854675
-0.045871421694755554 -0.0015931054949760437 -0.005925387144088745 0.09120355546474457 0.10204117745161057 -0.990590512752533
0.08060596883296967 0.5412642955780029 0.17994001507759094 0.3254963159561157 -0.4703960418701172 0.820231556892395
0.07575526833534241 0.2824314832687378 0.29479172825813293 0.7982776761054993 -0.5116134881973267 -0.3178117871284485
-0.025631779804825783 -0.6886917352676392 -0.390308678150177 0.19870227575302124 -0.5441749691963196 0.8151018619537354
-0.04267410188913345 0.12875068187713623 0.007795758545398712 -0.9245648980140686 -0.12663818895816803 0.3593641221523285
0.30143457651138306 0.3699454367160797 -0.4601428210735321 -0.6042965054512024 0.04157082736492157 0.7956743836402893
-0.005507074762135744 0.015740204602479935 0.03112330287694931 0.7372370958328247 0.29950574040412903 -0.6056218147277832
-0.007502989377826452 -0.6371167898178101 -0.351779967546463 -0.5033121705055237 -0.18497315049171448 -0.844074547290802
-0.037596795707941055 0.229786217212677 -0.01287589967250824 0.8564478158950806 -0.1813938319683075 -0.483315110206604
0.01587185263633728 0.5371476411819458 0.14595243334770203 -0.7267038822174072 -0.4250892698764801 0.5396300554275513
0.19974049925804138 0.011995892971754074 -0.4353979527950287 -0.020338166505098343 -0.1597403734922409 0.9869495630264282
-0.0710272416472435 0.009648535400629044 -0.007083475589752197 0.09120355546474457 0.10204117745161057 -0.990590512752533
-0.21269886195659637 0.20271998643875122 -0.45372462272644043 -0.9679962396621704 -0.20822978019714355 0.14008469879627228
0.05288912355899811 0.7065083980560303 0.19440999627113342 0.353117972612381 -0.10481394082307816 -0.9296891093254089
-0.09675289690494537 0.16696323454380035 -0.08394414186477661 -0.09120355546474457 -0.10204117745161057 0.990590512752533
0.00856152456253767 -0.02034769207239151 0.028701163828372955 -0.5542266964912415 -0.4117205739021301 0.7234079241752625
-0.045652780681848526 -0.39578014612197876 -0.23184834420681 -0.3026685416698456 -0.5938426852226257 0.7454814910888672
0.003882399760186672 -0.5582162141799927 -0.31105729937553406 -0.24025215208530426 -0.6474310159683228 0.7232648730278015
-0.07460063695907593 -0.2681432366371155 -0.12672510743141174 0.03509350121021271 0.8260059952735901 -0.5625678896903992
0.2792638838291168 0.23082244396209717 -0.4765152037143707 -0.6431861519813538 0.02683381363749504 -0.7652395963668823
0.2844313681125641 0.39050301909446716 -0.4595906734466553 -0.8855589032173157 0.2568715810775757 0.3870430588722229
0.05301506817340851 0.37883061170578003 0.1330638825893402 -0.09120355546474457 -0.10204117745161057 0.990590512752533
-0.10153648257255554 -0.031305328011512756 -0.07326145470142365 -0.8842157125473022 -0.13476534187793732 0.44721460342407227
-0.08045157045125961 -0.2386125922203064 -0.06507150828838348 0.25386640429496765 0.26944220066070557 -0.9289525151252747
0.02490077167749405 0.6339620351791382 0.21196356415748596 0.35016554594039917 -0.3156072497367859 -0.8819162249565125
-0.05859854817390442 -0.3375307023525238 -0.163946270942688 -0.5484490394592285 -0.4000222682952881 0.73429274559021
-0.0042857215739786625 -0.5483406782150269 -0.3107920289039612 0.11708598583936691 0.3793816566467285 -0.9178019762039185
0.26221874356269836 0.217010498046875 -0.4440171420574188 -0.06361819058656693 -0.0065971920266747475 -0.9979525804519653
0.017382990568876266 0.6929795742034912 0.18974736332893372 0.14463983476161957 -0.04258265346288681 -0.9885677099227905
0.24857811629772186 0.03506433218717575 -0.4285251796245575 0.5570427775382996 -0.45594140887260437 0.6941331028938293
-0.038012631237506866 -0.011094696819782257 -0.006180591881275177 0.09120355546474457 0.10204117745161057 -0.990590512752533
0.07715457677841187 0.6457310914993286 0.21798691153526306 -0.07717355340719223 0.00594988651573658 0.996999979019165
0.002290491946041584 -0.3525330424308777 -0.15988561511039734 0.07818076014518738 0.21095921099185944 -0.974363386631012
0.0975838452577591 0.5395563840866089 0.18132725358009338 0.48297223448753357 -0.4750120937824249 0.7355958819389343
-0.05056706443428993 -0.5007576942443848 -0.27466142177581787 -0.38432952761650085 -0.45649266242980957 0.8024371266365051
-0.14959034323692322 -0.15345977246761322 -0.28349336981773376 -0.5357123017311096 -0.8337236642837524 0.1338549256324768
-0.13281504809856415 0.12386898696422577 -0.18634405732154846 -0.916581392288208 -0.35250020027160645 0.1887381225824356
0.003947249613702297 0.07105697691440582 0.06529546529054642 -0.5930376648902893 -0.5384376049041748 0.5986579060554504
-0.041979510337114334 -0.615455150604248 -0.35272282361984253 -0.3871360719203949 0.03656342625617981 -0.9212973713874817
0.01967211440205574 0.43196314573287964 0.1039203479886055 -0.9517493844032288 0.026448821648955345 0.30573466420173645
-0.16228853166103363 0.019666198641061783 -0.3299223780632019 -0.9804903268814087 0.15502864122390747 -0.12085070461034775
-0.05876953527331352 -0.2378094494342804 -0.09059599786996841 0.08496995270252228 -0.6065136194229126 0.7905197143554688
0.00040511414408683777 0.6946874856948853 0.18836012482643127 0.3806593716144562 -0.446079283952713 -0.8100072741508484
-0.05509476363658905 -0.05733180791139603 -0.04406309127807617 0.7339555621147156 0.26072579622268677 -0.6271613836288452
0.010133172385394573 -0.0031694918870925903 0.030615411698818207 -0.6410711407661438 -0.3729766011238098 0.6707580089569092
0.03103727102279663 0.6078063249588013 0.2098342478275299 0.09120355546474457 0.10204117745161057 -0.990590512752533
0.06521608680486679 0.6539664268493652 0.19013258814811707 -0.5825793743133545 -0.8004757761955261 0.1408541351556778
0.01587185263633728 0.5371476411819458 0.14595243334770203 -0.7267038822174072 -0.4250892698764801 0.5396300554275513
0.2962670922279358 0.21026486158370972 -0.47706738114356995 -0.7336578965187073 0.03457782045006752 -0.6786386370658875
-0.06982557475566864 -0.31566503643989563 -0.1942743957042694 -0.4666910767555237 -0.5377672910690308 0.7021437287330627
-0.045871421694755554 -0.0015931054949760437 -0.005925387144088745 0.09120355546474457 0.10204117745161057 -0.990590512752533
-0.001333724707365036 0.20749488472938538 0.13801410794258118 -0.9441060423851013 -0.22112219035625458 0.2444765716791153
0.1288703978061676 0.4773569703102112 0.059499941766262054 -0.6877065300941467 0.50638747215271 -0.5202224850654602
-0.0003477213904261589 -0.3913748562335968 -0.22722332179546356 0.15143968164920807 0.7535703778266907 -0.6396856307983398
0.0356173999607563 -0.44638779759407043 -0.261125773191452 0.5401984453201294 0.4168139398097992 -0.731062114238739
-0.002236095257103443 0.19250835478305817 0.07723691314458847 -0.9651696681976318 -0.06668900698423386 0.25298261642456055
0.009859827347099781 0.19893977046012878 0.2249172329902649 -0.9311552047729492 -0.2680266201496124 0.24720779061317444
-0.08834902197122574 -0.22906425595283508 -0.06481504440307617 -0.2477598935365677 -0.10271521657705307 0.9633611440658569
0.029672276228666306 0.5463880896568298 0.1757783591747284 0.41322484612464905 0.37709569931030273 -0.8288812637329102
0.08020402491092682 0.5858346223831177 0.21209770441055298 -0.43716973066329956 0.33228546380996704 -0.8357445597648621
-0.03820158913731575 0.6472693681716919 0.17992106080055237 0.12812313437461853 0.06538549065589905 0.9896005392074585
-0.11441145837306976 -0.12279048562049866 -0.11541762948036194 0.7745229005813599 0.0934632420539856 -0.6256029009819031
-0.02195632830262184 -0.17446593940258026 -0.05307808145880699 -0.4419638216495514 -0.4036964178085327 0.8010600805282593
-0.002733200788497925 0.5667484998703003 0.17489215731620789 -0.32781556248664856 -0.5477527976036072 0.7697427272796631
-0.016355836763978004 0.27687665820121765 0.05702424794435501 0.947591245174408 -0.30291613936424255 -0.10155125707387924
0.052533671259880066 0.563079833984375 0.207206130027771 -0.337629109621048 -0.5302706956863403 0.7777014970779419
-0.1276165395975113 0.12722674012184143 -0.15397271513938904 -0.9297866821289062 -0.2832125723361969 0.2351326048374176
0.023136403411626816 -0.31912165880203247 -0.15452462434768677 -0.09120355546474457 -0.10204117745161057 0.990590512752533
-0.16260340809822083 0.0017655491828918457 -0.2687016427516937 -0.6163924336433411 0.7231419086456299 0.3116505742073059
-0.1706146001815796 -0.1714281439781189 -0.35037368535995483 -0.6833048462867737 -0.6512531042098999 0.3300968110561371
-0.036009617149829865 0.24713429808616638 -0.010942727327346802 0.86467444896698 -0.2358100265264511 -0.44354456663131714
-0.12883500754833221 -0.170073464512825 -0.3148406445980072 -0.43995359539985657 -0.8787479400634766 0.18504837155342102
0.015824180096387863 -0.41092732548713684 -0.22774848341941833 0.3486633896827698 0.6647751927375793 -0.6606874465942383
-0.1311899572610855 0.14163115620613098 -0.18436475098133087 -0.8928753137588501 -0.35589808225631714 0.2758807837963104
-0.14047646522521973 0.18204019963741302 -0.14951036870479584 -0.9171109199523926 -0.007833104580640793 0.39855527877807617
0.08404341340065002 0.43582388758659363 0.14179155230522156 0.4655686616897583 -0.19581541419029236 0.8630771636962891
0.22328662872314453 0.2021762728691101 -0.44912970066070557 -0.09120355546474457 -0.10204117745161057 0.990590512752533
-0.06643587350845337 0.20808465778827667 -0.07691691815853119 0.8164464831352234 -0.27670177817344666 -0.5068050026893616
0.04207469895482063 0.6819453239440918 0.1908840835094452 0.09120355546474457 0.10204117745161057 -0.990590512752533
0.28434818983078003 0.18319320678710938 -0.4809533953666687 -0.7601658701896667 0.3099938929080963 -0.5710093379020691
-0.18413063883781433 -0.16608688235282898 -0.38655808568000793 -0.7608218789100647 -0.4032057821750641 0.5085027813911438
-0.19669105112552643 -0.026768282055854797 -0.23928916454315186 -0.6852927803993225 0.640396773815155 0.34679344296455383
-0.10640253126621246 -0.03525368869304657 -0.10566303879022598 -0.8852177262306213 -0.20656666159629822 0.41679704189300537
-0.014802886173129082 -0.5043554306030273 -0.2717392146587372 0.09120355546474457 0.10204117745161057 -0.990590512752533
0.012836716137826443 -0.4981301724910736 -0.2685531973838806 0.09120355546474457 0.10204117745161057 -0.990590512752533
-0.06982557475566864 -0.31566503643989563 -0.1942743957042694 -0.4666910767555237 -0.5377672910690308 0.7021437287330627
-0.06002873554825783 0.27811408042907715 -0.06911325454711914 -0.42595815658569336 0.11881449818611145 0.8969073295593262
-0.03319748491048813 0.23232966661453247 0.019337989389896393 0.9077474474906921 -0.11194869130849838 -0.40430429577827454
-0.013547565788030624 0.5421856045722961 0.17136621475219727 -0.05829301103949547 -0.6073885560035706 0.7922633290290833
0.04838161915540695 0.42223575711250305 0.1371084749698639 0.09120355546474457 0.10204117745161057 -0.990590512752533
-0.009904284030199051 -0.4508140981197357 -0.26577287912368774 0.09120355546474457 0.10204117745161057 -0.990590512752533
-0.15382272005081177 0.18872204422950745 -0.18159769475460052 -0.9417465329170227 -0.03731416538357735 0.33424705266952515
0.024105854332447052 0.191622793674469 0.3910960853099823 -0.1452813595533371 -0.01215567160397768 -0.9893156886100769
-0.042512886226177216 -0.20741355419158936 -0.05836467072367668 0.4086691439151764 0.5757519602775574 -0.7081660628318787
-0.04901690036058426 0.7742478847503662 0.10525158792734146 -0.21572497487068176 0.10622546076774597 0.9706590175628662
-0.11657685041427612 0.12603867053985596 -0.3817932605743408 -0.8384890556335449 -0.5424211621284485 -0.052109379321336746
0.23682238161563873 0.11086389422416687 -0.4217993915081024 0.09596601128578186 0.5401672720909119 0.8360681533813477
-0.0022741639986634254 0.09757485240697861 0.0674542710185051 -0.7906427979469299 -0.4829520285129547 0.3763527572154999
-0.1096450537443161 -0.16744118928909302 -0.1195782721042633 -0.7761200666427612 -0.029974211007356644 0.6298723220825195
0.03751981258392334 0.39756500720977783 0.13356706500053406 0.34532150626182556 0.09402979165315628 -0.9337620139122009
-0.04564870521426201 -0.14582090079784393 -0.05230869725346565 -0.7286006808280945 -0.47006964683532715 0.49817225337028503
-0.07933662831783295 -0.0774955004453659 -0.07597559690475464 -0.8491736054420471 -0.17524860799312592 0.4981888234615326
-0.04867063835263252 -0.5401402711868286 -0.3771274983882904 -0.9455724358558655 -0.20719526708126068 0.2509239912033081
-0.07917220890522003 0.26237136125564575 -0.07249745726585388 0.5666230320930481 -0.12235158681869507 -0.8148425817489624
-0.035100989043712616 0.6811586618423462 0.18369749188423157 -0.27237099409103394 0.426085889339447 0.8627079129219055
0.07292988151311874 0.6446402072906494 0.1898820698261261 -0.6795766949653625 -0.7090516090393066 -0.18820588290691376
-0.061918795108795166 -0.1759529411792755 -0.0845140814781189 0.4558139145374298 0.2241213172674179 -0.8613961935043335
-0.1319141834974289 -0.023853041231632233 -0.10683751106262207 -0.8987393379211426 -0.10845133662223816 0.4248599112033844
-0.04899190366268158 0.059697989374399185 0.0001009330153465271 -0.09120355546474457 -0.10204117745161057 0.990590512752533
0.2571190595626831 0.16127148270606995 -0.45022836327552795 -0.2216804027557373 -0.15702630579471588 0.9623931646347046
0.07101810723543167 0.6718868017196655 0.22011622786521912 -0.5168125033378601 0.25818368792533875 0.8162389397621155
0.01810722053050995 0.41485923528671265 0.10201438516378403 -0.8897439241409302 -0.1911257803440094 0.414519727230072
-0.07874854654073715 0.06760209053754807 -0.033371396362781525 0.7566899061203003 -0.4912920296192169 -0.43133822083473206
-0.01317003183066845 -0.4865083396434784 -0.2697504460811615 0.09120355546474457 0.10204117745161057 -0.990590512752533
0.19974049925804138 0.011995892971754074 -0.4353979527950287 -0.020338166505098343 -0.1597403734922409 0.9869495630264282
-0.02354353852570057 -0.19181403517723083 -0.05501125007867813 0.1830674558877945 0.4967726171016693 -0.8483533263206482
-0.058575667440891266 0.24569736421108246 -0.040771886706352234 0.8306050300598145 -0.2373117059469223 -0.5037643909454346
-0.031771693378686905 -0.13367688655853271 -0.01823323965072632 -0.7747173309326172 -0.47302812337875366 0.4195919334888458
0.15885616838932037 -0.09135298430919647 -0.48529839515686035 -0.5007488131523132 -0.13551920652389526 0.8549183011054993
-0.15707291662693024 0.1531977355480194 -0.1855563223361969 -0.9170114994049072 -0.32611533999443054 0.2296488881111145
0.2895157039165497 0.34287378191947937 -0.46402886509895325 -0.5180036425590515 0.0036675031296908855 0.8553705811500549
-0.16154102981090546 -0.14587943255901337 -0.18522891402244568 -0.6625577807426453 -0.6504054665565491 0.37147003412246704
0.25699272751808167 0.0248907171189785 -0.4287984371185303 0.5840798020362854 -0.4382890462875366 0.6831936240196228
-0.058269206434488297 -0.09202802181243896 -0.04792943596839905 0.8825520277023315 -0.05227111279964447 -0.4673003852367401
-0.1316676288843155 0.02447410672903061 -0.07028976082801819 -0.9115764498710632 -0.37896454334259033 0.15941861271858215
-0.18863588571548462 0.203764408826828 -0.41591137647628784 -0.9430217146873474 -0.11878782510757446 0.3108046352863312
-0.13059782981872559 -0.0550975427031517 -0.1414816677570343 0.7512187957763672 -0.23533456027507782 -0.6166749596595764
-0.15305326879024506 -0.10610119998455048 -0.14880305528640747 -0.09120355546474457 -0.10204117745161057 0.990590512752533
0.03215300664305687 0.4738609194755554 0.10938537865877151 0.15480495989322662 -0.5852864980697632 0.7959115505218506
0.28434818983078003 0.18319320678710938 -0.4809533953666687 -0.7601658701896667 0.3099938929080963 -0.5710093379020691
-0.11589635163545609 0.15122053027153015 -0.08732834458351135 -0.7914714217185974 -0.04464885964989662 0.6095731854438782
-0.08407989144325256 -0.033061400055885315 -0.07183513045310974 0.7661604881286621 0.11908183991909027 -0.63152015209198
0.06521608680486679 0.6539664268493652 0.19013258814811707 -0.5825793743133545 -0.8004757761955261 0.1408541351556778
-0.06829484552145004 -0.24564260244369507 -0.09227988868951797 -0.07274811714887619 0.7875475287437439 -0.6119449138641357
0.014199075289070606 -0.42868950963020325 -0.22972778975963593 0.38321277499198914 0.7241380214691162 -0.573386549949646
-0.08874393254518509 0.25450003147125244 -0.07418955117464066 0.6901614665985107 -0.021212555468082428 -0.7233445048332214
0.2979757487773895 0.22894011437892914 -0.47498631477355957 -0.7420583367347717 0.05473727360367775 -0.6680967211723328
-0.22560791671276093 -0.09872016310691833 -0.45047444105148315 -0.9926323890686035 -0.0004619624523911625 0.12116414308547974
0.08096711337566376 0.4962480664253235 0.14773264527320862 0.47246211767196655 -0.5253276228904724 0.7076796293258667
-0.10312103480100632 0.19410660862922668 -0.08173440396785736 -0.7415717244148254 0.24740159511566162 0.6235894560813904
-0.022757213562726974 -0.0778743177652359 0.019891805946826935 -0.801666259765625 0.08791512995958328 0.5912715792655945
0.25201940536499023 0.10553248226642609 -0.4564395844936371 -0.024469420313835144 0.5153098106384277 0.8566545844078064
0.007390332408249378 -0.628036379814148 -0.381020188331604 0.7614126801490784 -0.1628575176000595 0.6274776458740234
-0.11827442795038223 0.019054971635341644 -0.04201139509677887 0.6058230996131897 0.3250288963317871 -0.7261781096458435
-0.029945500195026398 -0.2638011872768402 -0.12216643244028091 -0.06745974719524384 -0.5924370884895325 0.8027873039245605
0.2879078984260559 0.4302026629447937 -0.5616517066955566 0.8612589836120605 -0.4357672333717346 -0.2614189386367798
-0.059856414794921875 -0.10937610268592834 -0.04986260086297989 -0.9041492938995361 -0.24023064970970154 0.35327500104904175
-0.006161422003060579 -0.19356262683868408 -0.05359100177884102 0.4106334149837494 -0.6430774331092834 0.6463988423347473
-0.04563380032777786 0.7578673362731934 0.1314792037010193 -0.6884743571281433 0.05430245026946068 0.723224937915802
0.21491968631744385 0.07575873285531998 -0.42743217945098877 0.12077490240335464 0.1541997194290161 0.9806303977966309
-0.044291988015174866 0.015670068562030792 -0.004001684486865997 0.09120355546474457 0.10204117745161057 -0.990590512752533
0.01548959594219923 0.15819162130355835 0.16208776831626892 -0.9371180534362793 -0.15666155517101288 0.3118765354156494
-0.07925909012556076 0.1159072145819664 -0.056045953184366226 -0.9077346920967102 -0.18843531608581543 0.37484636902809143
-0.09364396333694458 -0.13759593665599823 -0.08348384499549866 -0.7866313457489014 -0.224955216050148 0.5749837756156921
-0.021271269768476486 0.6954647302627563 0.15884095430374146 0.324944406747818 -0.6619551777839661 -0.6754454374313354
0.11555438488721848 0.5993040800094604 0.21673992276191711 -0.7528492212295532 0.5874390006065369 -0.2968730330467224
-0.05861357972025871 -0.648815393447876 -0.389237642288208 0.10764719545841217 -0.5018563866615295 0.8582262396812439
-0.1575978845357895 -0.17794379591941833 -0.38533660769462585 -0.5200725197792053 -0.774834930896759 0.3593820631504059
0.0008560558781027794 0.27514517307281494 0.058430589735507965 -0.9405344128608704 0.3331620395183563 0.06631864607334137
-0.007327715866267681 -0.3604426085948944 -0.16158592700958252 0.19354093074798584 0.34405478835105896 -0.9187862873077393
-0.13007360696792603 0.041896529495716095 -0.06834831833839417 -0.9884010553359985 0.08091388642787933 0.1285155564546585
0.061794646084308624 0.664301872253418 0.21848571300506592 -0.49892863631248474 0.2792882025241852 0.8204074501991272
-0.07239969074726105 0.13699451088905334 -0.025638706982135773 -0.8898764848709106 -0.00108585215639323 0.4562002718448639
-0.012403827160596848 -0.2655658423900604 -0.12073314934968948 -0.1524520069360733 0.5550530552864075 -0.8177252411842346
0.21826086938381195 0.010132823139429092 -0.43388471007347107 0.09593988955020905 0.03515581041574478 -0.994766116142273
0.2537606358528137 0.22723670303821564 -0.44374245405197144 0.09120355546474457 0.10204117745161057 -0.990590512752533
0.010896663181483746 0.20121771097183228 0.1660970151424408 -0.9591135382652283 -0.24525880813598633 0.14124219119548798
-0.10472284257411957 0.17659923434257507 -0.08368532359600067 -0.09120355546474457 -0.10204117745161057 0.990590512752533
