ply
format ascii 1.0
element vertex 396
property float x
property float y
property float z
property float nx
property float ny
property float nz
end_header
0.02224189043045044 0.22185558080673218 0.24111339449882507 -0.9797607064247131 0.0038999971002340317 0.20013436675071716
-0.09235405921936035 0.2557738423347473 -0.08586505800485611 0.803195059299469 -0.2561566233634949 -0.5378304123878479
-0.05301946401596069 -0.6325751543045044 -0.44451403617858887 -0.881843090057373 0.38378793001174927 0.2739701569080353
-0.037079453468322754 0.6116511821746826 0.16674168407917023 0.9541283845901489 0.23419103026390076 -0.18653030693531036
-0.035487204790115356 -0.5278477668762207 -0.32872405648231506 0.9546275734901428 0.10383842885494232 -0.27911248803138733
-0.026750460267066956 0.781589686870575 0.09515319764614105 0.6071661114692688 -0.09637007862329483 0.7887092232704163
-0.03210597485303879 -0.5062094926834106 -0.37714219093322754 0.9941468834877014 -0.0070530567318201065 0.10780613124370575
-0.011004496365785599 0.6410016417503357 0.06462141871452332 0.9792667031288147 -0.13899926841259003 0.1473635882139206
-0.09031914174556732 0.1154661551117897 -0.22769957780838013 -0.5810664296150208 -0.8121587038040161 0.05253586173057556
-0.029244258999824524 -0.4561711549758911 -0.3948037624359131 0.9317091703414917 -0.13247519731521606 0.3381839096546173
-0.1722767949104309 -0.09914756566286087 -0.24121975898742676 0.9781997203826904 0.15791939198970795 0.13485826551914215
0.007093958556652069 0.06531945616006851 0.4142240583896637 0.9973564743995667 -0.06531012803316116 -0.0318538062274456
0.011241137981414795 0.10714064538478851 0.3660692870616913 0.9318699240684509 -0.2820400595664978 0.2281927466392517
-0.0945042073726654 0.14078634977340698 -0.12947633862495422 -0.9869146347045898 -0.14838409423828125 0.06310080736875534
-0.010424844920635223 0.11276274919509888 0.037684421986341476 -0.9518300890922546 0.19931474328041077 0.23300890624523163
0.01549777016043663 -0.006206311285495758 0.20178642868995667 -0.891316831111908 0.22821550071239471 -0.39175504446029663
0.031194135546684265 0.1693861484527588 0.404585599899292 -0.9996711015701294 -0.021400211378932 0.014134254306554794
0.003656245768070221 0.5274080634117126 0.07457445561885834 -0.9254617094993591 -0.2914392948150635 -0.24204091727733612
-0.07532064616680145 0.24856266379356384 -0.042858608067035675 0.8190473318099976 -0.21111847460269928 -0.5334702134132385
-0.0378856360912323 -0.3377406597137451 -0.14337274432182312 -0.781114399433136 -0.36066585779190063 0.5096866488456726
0.04260154813528061 0.2945416271686554 0.27956727147102356 -0.7631849050521851 0.6212843656539917 -0.1776358187198639
0.011928677558898926 0.03971873223781586 0.30343613028526306 0.9387473464012146 -0.31038492918014526 0.14971521496772766
0.031194135546684265 0.1693861484527588 0.404585599899292 -0.9996711015701294 -0.021400211378932 0.014134254306554794
-0.09665435552597046 0.0257987342774868 -0.17308755218982697 0.9381471872329712 -0.33530929684638977 -0.08629926294088364
-0.05584429204463959 -0.6250693798065186 -0.3852601945400238 0.8118616938591003 -0.39766889810562134 -0.42748111486434937
-0.04940105974674225 -0.4483950138092041 -0.3779783248901367 0.9471546411514282 -0.16777066886425018 0.273406445980072
-0.052747659385204315 -0.030381210148334503 -0.007082030177116394 0.7603614330291748 0.19856634736061096 -0.6184027791023254
0.03503376990556717 0.32816728949546814 0.075908362865448 -0.9038389325141907 0.2701560854911804 0.33179956674575806
-0.15784397721290588 0.20000308752059937 -0.2959074079990387 0.9860661029815674 -0.07217882573604584 0.14987961947917938
-0.010831322520971298 0.6315349340438843 0.0543692372739315 0.9494857788085938 0.27390074729919434 0.1531507521867752
0.04623597860336304 0.4915432631969452 -0.01711484231054783 -0.8117735981941223 0.5735949277877808 -0.10960131138563156
-0.1422753632068634 -0.13542836904525757 -0.1684025079011917 0.7494403719902039 0.5366024971008301 -0.3878103196620941
0.003783203661441803 -0.1117362454533577 0.34707218408584595 0.9775429368019104 -0.024739395827054977 0.20927925407886505
-0.00035079196095466614 0.33191579580307007 0.007117561995983124 0.8057578206062317 -0.13415323197841644 -0.5768510699272156
0.0018135271966457367 0.3912617266178131 0.009563591331243515 0.9401687383651733 0.059712450951337814 -0.3354358375072479
0.004387561231851578 0.03424676135182381 0.44287043809890747 -0.9540383219718933 0.25857335329055786 0.15149493515491486
0.0023741647601127625 0.44944387674331665 0.04166135564446449 0.944624662399292 -0.18811647593975067 0.26888003945350647
-0.18439030647277832 -0.03383128345012665 -0.2606448531150818 -0.8134163618087769 0.4754747152328491 -0.3350786566734314
-0.010844316333532333 0.6027483940124512 0.03345876559615135 0.9315581917762756 0.21792720258235931 0.2910448908805847
-0.035074081271886826 0.3551076650619507 -0.05996212363243103 0.8990335464477539 -0.3180393874645233 -0.3009810745716095
0.038588061928749084 0.18449120223522186 0.27503135800361633 0.9524882435798645 0.27015358209609985 0.14065279066562653
-0.011550001800060272 0.6118286848068237 0.05355701223015785 -0.9403119087219238 -0.0857301652431488 -0.32933861017227173
-0.0945042073726654 0.14078634977340698 -0.12947633862495422 -0.9869146347045898 -0.14838409423828125 0.06310080736875534
0.0005381554365158081 -0.14319977164268494 0.385678231716156 0.9854744076728821 -0.051108360290527344 0.16195106506347656
-0.11068572849035263 0.13015350699424744 -0.20180359482765198 -0.5320286750793457 -0.7989708185195923 0.2803412079811096
0.01666707545518875 0.1984044313430786 0.32992804050445557 0.8502752780914307 0.5179705619812012 -0.09347943216562271
-0.10642771422863007 0.3027206361293793 -0.1559707671403885 0.7502037286758423 -0.6549779176712036 -0.09054412692785263
-0.0007675401866436005 0.20575961470603943 0.29465943574905396 -0.7668409943580627 -0.5033045411109924 -0.3982956111431122
-0.05229060351848602 -0.5842687487602234 -0.4228748679161072 -0.8802186846733093 0.40010398626327515 0.2552095651626587
-0.027620738372206688 -0.39743882417678833 -0.38252103328704834 -0.8581920862197876 0.2845943868160248 -0.427214652299881
-0.025728361681103706 0.6963316798210144 0.013046465814113617 0.9849417805671692 -0.029236329719424248 -0.17039650678634644
-0.0733458548784256 -0.26258718967437744 -0.15824277698993683 0.8539536595344543 0.34863921999931335 -0.3862820565700531
0.0240461602807045 0.24257075786590576 0.22201576828956604 -0.9756609201431274 0.21886813640594482 0.013510663993656635
-0.1445673108100891 0.14327645301818848 -0.21782855689525604 0.7474400401115417 0.5332704782485962 -0.39617660641670227
0.002574089914560318 0.4977351427078247 0.07335144281387329 0.9473220705986023 -0.1996040940284729 0.2504778802394867
0.014797098934650421 0.032097190618515015 0.24326786398887634 0.9022180438041687 -0.42999574542045593 0.03326176106929779
0.037376679480075836 0.3492732048034668 0.04685119912028313 0.8167080283164978 -0.07078205794095993 -0.5726935863494873
-0.07332872599363327 -0.6147643327713013 -0.41741296648979187 0.9461944699287415 -0.26571014523506165 -0.18470005691051483
0.03260081261396408 0.09248822927474976 0.32130736112594604 0.9139761328697205 -0.10356219112873077 0.39232951402664185
-0.09315186738967896 0.03779248893260956 -0.23090101778507233 0.6228126287460327 -0.6561675667762756 0.42608505487442017
-0.07674252986907959 0.20957431197166443 -0.044465571641922 0.8556573987007141 0.04784180596470833 -0.5153266191482544
0.022767402231693268 0.19312801957130432 0.21000228822231293 0.9838510155677795 0.11042530089616776 -0.1408669799566269
-0.08992068469524384 -0.20802128314971924 -0.10070082545280457 0.8680042624473572 0.2827608287334442 -0.4081849455833435
-0.055529411882162094 -0.31906479597091675 -0.1663418859243393 -0.8486948013305664 -0.32420724630355835 0.4178597927093506
-0.0845201164484024 -0.2989940047264099 -0.27030014991760254 -0.9121164679527283 0.20761360228061676 -0.3534686863422394
-0.03529231250286102 -0.09604964405298233 -0.015067152678966522 -0.6476807594299316 -0.21358704566955566 0.731361985206604
-0.03820599615573883 -0.2612341344356537 -0.08104744553565979 -0.6445401310920715 -0.5182419419288635 0.5621327757835388
-0.07238350063562393 -0.08103474229574203 -0.04311177507042885 -0.7219924926757812 -0.162770077586174 0.6724824905395508
0.028517387807369232 0.20700323581695557 0.11081719398498535 0.949420154094696 0.3015941381454468 -0.08742022514343262
-0.012628011405467987 0.5822694301605225 0.05233868584036827 0.9119952321052551 0.3161238133907318 0.26140105724334717
-0.04741288349032402 -0.3513973355293274 -0.3445081412792206 -0.8076818585395813 -0.025405118241906166 -0.5890710353851318
-0.13899491727352142 -0.17056217789649963 -0.2566300332546234 -0.5043626427650452 -0.8577868938446045 0.0990961343050003
-0.050078146159648895 -0.3819977939128876 -0.31629711389541626 0.8044869899749756 0.2501215636730194 0.5387391448020935
0.03672417253255844 0.04678112268447876 0.20927387475967407 -0.8798162937164307 0.35157516598701477 -0.3198722302913666
-0.14559265971183777 0.17057953774929047 -0.1782558709383011 0.688315749168396 0.5991970300674438 -0.4088818430900574
0.00983189046382904 0.3970800042152405 -0.13869497179985046 0.6957980990409851 -0.6980435848236084 0.1691155582666397
-0.13937726616859436 0.14704245328903198 -0.3137917220592499 -0.7871177792549133 -0.5774129033088684 -0.21688702702522278
-0.1723020076751709 -0.15503904223442078 -0.2818191647529602 -0.9578007459640503 -0.2717711925506592 0.0935850515961647
0.0019439570605754852 0.680233359336853 0.21947181224822998 -0.9009535312652588 0.006605714559555054 0.43386539816856384
-0.11537853628396988 -0.7817794680595398 -0.4104503393173218 0.9831908941268921 -0.18122261762619019 0.022227175533771515
-0.040158599615097046 -0.6559381484985352 -0.3340035080909729 0.8030630350112915 -0.17999686300754547 -0.5680589079856873
-0.09535743296146393 0.18742859363555908 -0.07896404713392258 0.8349436521530151 0.1279444843530655 -0.5352562665939331
-0.030880767852067947 -0.5436899662017822 -0.427996963262558 -0.9710908532142639 0.2349105179309845 0.042423006147146225
0.022789113223552704 -0.08994825929403305 0.37386956810951233 0.9853498935699463 0.04749777168035507 0.16379742324352264
0.029642336070537567 -0.07523559778928757 0.25431281328201294 -0.9363850355148315 -0.3320876955986023 -0.11358214914798737
-0.05054209753870964 0.7153421640396118 0.12671872973442078 0.7661654353141785 0.5710464119911194 0.29478228092193604
0.05483144521713257 -0.029223255813121796 0.18129035830497742 0.5795678496360779 -0.0005017785588279366 0.8149238228797913
-0.17057043313980103 -0.13515815138816833 -0.3001476526260376 0.9998835325241089 -0.007721882779151201 -0.013165079057216644
0.0023687034845352173 -0.06424777954816818 0.4088837504386902 0.98914635181427 -0.08902627229690552 -0.11689238995313644
-0.10304079204797745 -0.177333265542984 -0.20089584589004517 0.7617877721786499 0.6455140709877014 0.054689694195985794
0.08015065640211105 -0.030404523015022278 -0.3012302815914154 0.482854962348938 -0.13612933456897736 0.8650548458099365
0.032574430108070374 0.03403010591864586 0.27884355187416077 0.9193771481513977 -0.3873049318790436 0.06885160505771637
0.035818614065647125 0.03638414293527603 0.2188590168952942 0.8886476159095764 -0.32465413212776184 0.3238905668258667
-0.044329192489385605 0.21461498737335205 0.012839961796998978 0.8182578086853027 0.016402553766965866 -0.5746173858642578
0.037819020450115204 0.5339506268501282 0.1741712987422943 -0.7842435836791992 -0.5552792549133301 0.2768157720565796
-0.03679462522268295 -0.2793947756290436 -0.12124393880367279 0.7036920189857483 0.4151661694049835 -0.5765888094902039
-0.05148833990097046 0.018310070037841797 0.004748962819576263 -0.7986096739768982 0.00796720664948225 0.6017966270446777
0.022903144359588623 0.09619684517383575 0.1361772119998932 0.847389280796051 0.5267044305801392 -0.06718572229146957
0.011761948466300964 0.23418337106704712 0.07719951868057251 0.9911422729492188 0.01652362011373043 -0.1317724585533142
0.017017412930727005 0.17925269901752472 0.30918723344802856 0.8139011859893799 0.4338127076625824 0.3864859640598297
-0.10582230240106583 -0.1415424644947052 -0.12167695164680481 0.79416424036026 0.21470366418361664 -0.5685116052627563
-0.10385559499263763 -0.045592598617076874 -0.08856835961341858 -0.8448117971420288 0.0020590494386851788 0.5350596308708191
0.04534698277711868 0.5103040337562561 0.013585541397333145 0.8160265684127808 -0.49362820386886597 0.30071890354156494
-0.08771936595439911 -0.38671770691871643 -0.2739158272743225 0.9255459308624268 0.3784711956977844 0.011148332618176937
0.008131831884384155 -0.02125409245491028 0.3308502435684204 0.9945024251937866 0.050192900002002716 0.09190014004707336
-0.03461258113384247 0.5943301320075989 0.10708323121070862 0.9242339730262756 0.3813280761241913 0.019506456330418587
0.019496068358421326 0.10342752933502197 0.2063051462173462 -0.9827449321746826 -0.10642040520906448 0.15128476917743683
-0.0852738469839096 -0.024355679750442505 -0.054107341915369034 0.9445211291313171 -0.05462884157896042 -0.3238757848739624
-0.17332333326339722 -0.12784352898597717 -0.24240250885486603 -0.9236896634101868 -0.3815807104110718 0.03454677760601044
-0.16935577988624573 -0.11565244942903519 -0.3089176118373871 0.987888753414154 0.03851126506924629 -0.15030847489833832
-0.007606003433465958 0.3077348470687866 -0.24497437477111816 -0.424489289522171 0.7206813097000122 -0.5481125116348267
-0.10226859152317047 -0.016084156930446625 -0.09707008302211761 0.8799260854721069 -0.2511555850505829 -0.4033001661300659
0.018990859389305115 0.40375250577926636 0.06431296467781067 0.7967238426208496 0.29281774163246155 -0.5286670923233032
-0.08776214718818665 -0.09258527308702469 -0.05691952630877495 0.8538738489151001 0.10585171729326248 -0.5096026659011841
-0.16216036677360535 0.17824667692184448 -0.22978654503822327 -0.8979750275611877 -0.42933905124664307 0.0964822918176651
-0.026629725471138954 0.6574556827545166 0.0016200244426727295 -0.9545730352401733 -0.29532068967819214 -0.0396990031003952
-0.05850955843925476 -0.6556698679924011 -0.35704919695854187 0.8041766285896301 -0.20503398776054382 -0.5579077005386353
-0.2356012761592865 -0.14074259996414185 -0.40756911039352417 -0.7196295261383057 -0.1872117817401886 0.6686441898345947
0.024034075438976288 0.4847407639026642 0.027899842709302902 -0.723258376121521 0.46817630529403687 -0.5076497197151184
0.05537419766187668 -0.028829425573349 0.17125505208969116 0.5795678496360779 -0.0005017785588279366 0.8149238228797913
-0.07532064616680145 0.24856266379356384 -0.042858608067035675 0.8190473318099976 -0.21111847460269928 -0.5334702134132385
-0.004466455429792404 0.2904125154018402 0.054906461387872696 0.7741872668266296 -0.38098254799842834 -0.5054566860198975
-0.18289464712142944 -0.1441383957862854 -0.3701711595058441 0.825897753238678 0.17585252225399017 -0.5356947183609009
0.08123614639043808 -0.02961687743663788 -0.32130083441734314 0.482854962348938 -0.13612933456897736 0.8650548458099365
-0.1443985402584076 0.13404978811740875 -0.22782064974308014 0.7501122355461121 0.6112896800041199 -0.2523026168346405
0.013384856283664703 0.26435932517051697 0.0685054361820221 -0.8611741065979004 0.2969828248023987 0.41252920031547546
-0.1880227029323578 -0.09216324239969254 -0.23441830277442932 0.9919633865356445 0.12102701514959335 0.03689255937933922
-0.03456936776638031 -0.46003514528274536 -0.2963431477546692 0.9104828238487244 0.291674941778183 -0.2931669056415558
-0.11544092744588852 0.013718068599700928 -0.1969226449728012 -0.7566431760787964 0.6317607760429382 0.16843241453170776
0.0014534331858158112 -0.10372378677129745 0.3972809314727783 -0.9922053813934326 0.054039012640714645 -0.1122862696647644
-0.0363764762878418 0.6026057600975037 0.14672064781188965 0.9445207715034485 0.2617093026638031 -0.19846615195274353
-0.034944649785757065 0.6418666839599609 0.14833883941173553 0.9978787302970886 -0.03855420649051666 0.05245588719844818
-0.016231203451752663 -0.5173507332801819 -0.3149830400943756 0.949669361114502 0.10473495721817017 -0.2952266037464142
-0.07419216632843018 -0.1870521903038025 -0.08662621676921844 0.7505097389221191 0.24676474928855896 -0.6130598187446594
0.008354727178812027 0.21237888932228088 0.12598976492881775 0.9490200877189636 0.30819666385650635 0.06614949554204941
-0.08655637502670288 0.3166944980621338 -0.15137989819049835 0.7013562917709351 -0.7095099687576294 -0.0685194730758667
0.0045123957097530365 0.45099541544914246 0.002125721424818039 0.8369088172912598 -0.5390129089355469 0.09512466937303543
-0.030880767852067947 -0.5436899662017822 -0.427996963262558 -0.9710908532142639 0.2349105179309845 0.042423006147146225
0.03638569265604019 0.09523461014032364 0.2513253390789032 0.9904845356941223 0.01666652224957943 -0.13661132752895355
-0.03567350655794144 0.5935603380203247 0.12669959664344788 0.9259335398674011 0.3635576367378235 -0.1023373156785965
0.03566916286945343 0.10445456951856613 0.27173253893852234 0.9987524747848511 -0.01686372235417366 -0.04700058698654175
-0.021996794268488884 0.26851552724838257 -4.106387495994568e-05 0.7625570893287659 -0.29866668581962585 -0.5738509893417358
-0.016368580982089043 0.5507781505584717 0.10035070776939392 -0.9092636704444885 -0.41616305708885193 0.006920564454048872
-0.034729063510894775 0.3362470865249634 -0.08038771152496338 -0.8183161020278931 0.480365514755249 0.3156069219112396
-0.1357189118862152 0.20579129457473755 -0.3402058482170105 -0.8765161633491516 -0.11564559489488602 0.46727457642555237
-0.09943587332963943 0.06158951669931412 -0.09386865049600601 0.9868121147155762 0.15570077300071716 0.04426140338182449
-0.05140218511223793 -0.5740686058998108 -0.432278573513031 -0.904564380645752 0.39473485946655273 0.16108281910419464
-0.03498067706823349 -0.5850343704223633 -0.38039106130599976 0.9564160108566284 -0.16314592957496643 -0.24218130111694336
-0.06968984007835388 0.035143449902534485 -0.008964769542217255 0.8780664801597595 -0.044434111565351486 -0.4764711856842041
-0.03456936776638031 -0.46003514528274536 -0.2963431477546692 0.9104828238487244 0.291674941778183 -0.2931669056415558
-0.17468085885047913 -0.08226758986711502 -0.18308037519454956 0.869206428527832 0.16555289924144745 -0.4659103453159332
-0.0726584792137146 -0.3001629114151001 -0.19893628358840942 0.9269080758094788 0.19252322614192963 -0.32214319705963135
-0.037725456058979034 -0.37599387764930725 -0.17453531920909882 -0.791776716709137 -0.434581995010376 0.4292181134223938
-0.012987349182367325 0.572416365146637 0.051932577043771744 0.9259235262870789 0.20109611749649048 0.31972795724868774
-0.08699557185173035 -0.3387467861175537 -0.2524268925189972 0.9790205359458923 -0.03201208636164665 0.2012312263250351
-0.1825343370437622 -0.106746144592762 -0.3495427668094635 -0.8944372534751892 -0.13800983130931854 0.4253648817539215
-0.08687989413738251 -0.08245592564344406 -0.06625787168741226 0.8777779340744019 -0.030767841264605522 -0.4780787527561188
-0.18393784761428833 -0.17274346947669983 -0.37135013937950134 0.8435189723968506 0.10187692940235138 -0.5273489356040955
0.002180393785238266 -0.0837903842329979 0.3981025218963623 0.9936733841896057 -0.07425341755151749 0.08425953984260559
-0.09294281154870987 0.11356237530708313 -0.17918819189071655 0.950096607208252 0.31039366126060486 0.031181981787085533
-0.16250920295715332 0.16868138313293457 -0.2301807999610901 0.8624247312545776 0.4973941147327423 -0.09392926841974258
-0.025785069912672043 -0.2618136405944824 -0.31775906682014465 -0.8349246978759766 0.2092687040567398 -0.5090258717536926
-0.11310368776321411 0.17547601461410522 -0.12249509990215302 0.7210021615028381 0.5501428842544556 -0.42130589485168457
0.01299283280968666 0.011382021009922028 0.2623654901981354 0.9408951997756958 -0.3382367789745331 0.01766430027782917
-0.010086659342050552 0.7088142037391663 0.09700240194797516 0.8654025197029114 0.08183680474758148 0.4943493604660034
-0.12351498752832413 -0.12395643442869186 -0.144516721367836 0.7605124115943909 0.2976621687412262 -0.5770772695541382
-0.00036397576332092285 -0.15355736017227173 0.39522695541381836 0.9854744076728821 -0.051108360290527344 0.16195106506347656
-0.0831410139799118 0.03412686660885811 -0.05169689655303955 0.9291694760322571 0.16111011803150177 -0.3326975107192993
-0.052053384482860565 -0.4503195881843567 -0.3289371430873871 0.990639865398407 0.061170391738414764 -0.12202832847833633
-0.06720246374607086 -0.3057226240634918 -0.30681347846984863 0.8463152647018433 -0.23744438588619232 0.4768339991569519
-0.027187708765268326 0.1688251495361328 0.025435972958803177 -0.8549985885620117 -0.12249302119016647 0.5039572715759277
-0.028499595820903778 -0.37889179587364197 -0.3521706163883209 0.8626186847686768 0.035589732229709625 0.504601240158081
0.010124411433935165 0.01900356635451317 0.3225337564945221 0.9761201739311218 -0.19155964255332947 0.1024421900510788
0.062941774725914 0.30906942486763 0.27564552426338196 -0.7252150177955627 0.667509913444519 -0.16880081593990326
-0.10618919134140015 -0.17961779236793518 -0.1426822692155838 0.9143229126930237 0.3266434073448181 -0.23941119015216827
-0.05548633635044098 -0.6152542233467102 -0.3848556578159332 0.7993826866149902 -0.37456923723220825 -0.46977150440216064
0.08418797701597214 0.3047013580799103 0.24060097336769104 -0.6574333906173706 0.7236250638961792 -0.21011455357074738
0.009776942431926727 0.19407862424850464 0.08548431098461151 0.9270921945571899 0.006822225172072649 -0.37477126717567444
0.03311512619256973 0.03442244604229927 0.2688460648059845 0.9198653697967529 -0.3674454092979431 0.13722822070121765
-0.09470045566558838 0.09338244795799255 -0.16058403253555298 0.9734745621681213 0.04324071481823921 0.2246720790863037
0.014595642685890198 -0.016563840210437775 0.2113351821899414 -0.9247742891311646 0.010254801250994205 -0.38037797808647156
-0.07567611336708069 0.23881560564041138 -0.043260350823402405 0.8385418057441711 -0.1351630538702011 -0.527805507183075
0.001452803611755371 0.3813706338405609 0.009155914187431335 0.9005892276763916 0.20504476130008698 -0.3832697868347168
-0.11606111377477646 -0.7444656491279602 -0.37004056572914124 -0.9448830485343933 0.30613651871681213 0.11608831584453583
-0.09750758111476898 0.0724409967660904 -0.12257532775402069 0.9978787302970886 -0.03855420649051666 0.05245588719844818
0.028925806283950806 -0.06601569801568985 0.2747200131416321 0.983290433883667 0.17707432806491852 0.04224430397152901
-0.01858239807188511 -0.5960906744003296 -0.3281283676624298 -0.9483214616775513 0.06271597743034363 0.31105172634124756
-0.03168593347072601 0.031267937272787094 0.009904354810714722 0.648648202419281 0.04029935225844383 -0.7600207328796387
-0.09100857377052307 -0.673778772354126 -0.4223295748233795 0.9113301038742065 -0.3361970782279968 -0.23758994042873383
-0.061329636722803116 0.22206386923789978 -0.030619118362665176 0.8284544944763184 -0.04458101838827133 -0.5582792162895203
0.04260154813528061 0.2945416271686554 0.27956727147102356 -0.7631849050521851 0.6212843656539917 -0.1776358187198639
-0.1686328649520874 -0.04063029587268829 -0.26752969622612 -0.7748626470565796 0.4574148654937744 -0.43630215525627136
0.014849666506052017 0.14857086539268494 0.3278740644454956 0.9637585878372192 0.26601946353912354 0.02007446438074112
0.037506669759750366 0.18370652198791504 0.2950262129306793 0.844719648361206 0.3662376403808594 0.3902803659439087
0.04435989260673523 0.19841912388801575 0.17546947300434113 0.9549824595451355 0.2931162118911743 0.0457315556704998
-0.06543592363595963 0.7586599588394165 0.14401556551456451 -0.9414350390434265 -0.21694518625736237 -0.2581374943256378
-0.055650148540735245 -0.19493085145950317 -0.07280872017145157 -0.7222713828086853 -0.25222158432006836 0.643978476524353
0.005101386457681656 0.025061804801225662 0.42254042625427246 -0.9428184032440186 0.33330237865448 0.0017120370175689459
0.035480134189128876 0.08483774960041046 0.2609104812145233 0.9998771548271179 -0.01507318951189518 -0.004306252580136061
-0.026987683027982712 0.6476404070854187 0.001215476542711258 0.9540889263153076 0.2751794755458832 0.118281789124012
-0.1102762371301651 -0.7119112014770508 -0.45616042613983154 -0.9532457590103149 0.27329161763191223 0.12897388637065887
0.038357675075531006 0.5343414545059204 0.16421164572238922 0.829709529876709 0.476845383644104 -0.2901734709739685
0.007418014109134674 -0.012069128453731537 0.3511801064014435 0.995439887046814 0.0187798161059618 0.09352467954158783
-0.08882856369018555 -0.12182650715112686 -0.05812474712729454 0.8124027252197266 0.24479423463344574 -0.529223620891571
-0.03365519270300865 0.36569276452064514 -0.07917405664920807 0.8716597557067871 -0.43746259808540344 -0.22098802030086517
-0.1459302008152008 0.18903276324272156 -0.15827161073684692 0.8370285630226135 0.4515453279018402 -0.30901458859443665
0.036513976752758026 0.42627090215682983 0.1198546290397644 -0.8252881765365601 -0.3901454210281372 0.4082719683647156
-0.014476677402853966 0.41785773634910583 -0.033333681523799896 0.9060291647911072 -0.41027605533599854 0.10384932905435562
-0.05274341255426407 -0.41259828209877014 -0.28808608651161194 -0.8371669054031372 -0.5344247817993164 -0.11636897176504135
-0.09241807460784912 0.11394312977790833 -0.1888904571533203 0.9370372891426086 0.32807281613349915 0.11970546096563339
0.009734641760587692 -0.049199946224689484 0.27981993556022644 0.9616820812225342 0.2721492052078247 -0.033202700316905975
-0.12350223958492279 -0.09570097178220749 -0.12399199604988098 0.7408077716827393 0.2593150734901428 -0.6196447014808655
0.02029094099998474 0.5110229849815369 0.11842328310012817 -0.8884844183921814 -0.27273640036582947 0.3690669536590576
-0.007252346724271774 -0.3567677438259125 -0.3677637577056885 -0.8432000279426575 -0.05074191093444824 -0.5351999998092651
-0.08920973539352417 -0.18852710723876953 -0.0998973399400711 0.8389586210250854 0.1289890557527542 -0.5286872982978821
-0.056453607976436615 0.10185971111059189 -0.2117248773574829 0.7923359274864197 0.4922066032886505 0.36046698689460754
-0.20205339789390564 -0.16493868827819824 -0.3933347165584564 0.7418383359909058 0.18169726431369781 -0.6454936265945435
-0.16918766498565674 -0.12484262138605118 -0.31887033581733704 0.9820417165756226 0.028103383257985115 -0.18655891716480255
0.0038226284086704254 -0.02438092976808548 0.41052693128585815 0.9129579663276672 0.40224891901016235 0.06858288496732712
-0.06923484802246094 0.12013053894042969 -0.2530253231525421 -0.22829507291316986 -0.6936238408088684 -0.6832037568092346
-0.022399377077817917 0.55599445104599 0.2189096212387085 -0.954217791557312 -0.15217790007591248 -0.25750795006752014
-0.1726004183292389 -0.05282144248485565 -0.20101462304592133 0.9278516173362732 -0.1886596828699112 -0.3217124938964844
-0.17260494828224182 0.20678788423538208 -0.30798912048339844 -0.9399946331977844 0.2314966470003128 -0.250637948513031
0.08361010998487473 0.02098916843533516 -0.3292665183544159 -0.4798203706741333 0.11820776015520096 -0.869367241859436
0.003621179610490799 -0.07304195314645767 0.3785941004753113 0.9983633756637573 -0.04833017289638519 0.030573004856705666
0.018964678049087524 0.3457369804382324 0.022170592099428177 0.7745267152786255 0.011766158975660801 -0.6324317455291748
-0.1459302008152008 0.18903276324272156 -0.15827161073684692 0.8370285630226135 0.4515453279018402 -0.30901458859443665
-0.0968288704752922 -0.7349370121955872 -0.35655921697616577 -0.8281539082527161 0.40988004207611084 0.38230806589126587
-0.20136070251464844 -0.14594438672065735 -0.39255183935165405 -0.7335694432258606 -0.17520272731781006 0.6566429734230042
-0.1127382218837738 0.2134028971195221 -0.10157173871994019 0.8024483323097229 0.041285187005996704 -0.5952917337417603
0.013022754341363907 0.25443050265312195 0.06809620559215546 -0.9066855907440186 0.2224561721086502 0.35837769508361816
-0.07353058457374573 -0.28175851702690125 -0.16881917417049408 -0.8836759924888611 -0.36155784130096436 0.2973089814186096
-0.030335266143083572 -0.5145170092582703 -0.4169325530529022 -0.9545596241950989 0.23252715170383453 -0.18640539050102234
-0.17161694169044495 -0.16385412216186523 -0.3013303875923157 -0.9849241971969604 -0.043151892721652985 0.1675177812576294
0.006691057235002518 -0.032002463936805725 0.3503585457801819 0.9888653755187988 0.018771370872855186 0.14762389659881592
-0.07728216052055359 0.18071524798870087 -0.05541088432073593 0.900712788105011 -0.048657894134521484 -0.43168142437934875
-0.010805338621139526 0.6891080141067505 0.0961901843547821 -0.9578351974487305 -0.03956391289830208 -0.2845812141895294
-0.236301451921463 -0.18714803457260132 -0.42835673689842224 0.7370107173919678 0.20615796744823456 -0.6436724066734314
-0.1602732539176941 0.16099165380001068 -0.27836740016937256 0.8711807131767273 0.4567139744758606 0.18015675246715546
-0.10101006925106049 0.06044724956154823 -0.06476185470819473 -0.9571541547775269 -0.2512727379798889 0.14393696188926697
-0.0826142281293869 0.03450910747051239 -0.06143698841333389 -0.9637035131454468 -0.18036076426506042 0.19683872163295746
0.0009443312883377075 0.4387771487236023 0.06102152541279793 0.931361198425293 0.14006853103637695 -0.33607596158981323
-0.1604161411523819 0.22607332468032837 -0.22781530022621155 0.8066588640213013 -0.5836865901947021 0.09279778599739075
0.02224189043045044 0.22185558080673218 0.24111339449882507 -0.9797607064247131 0.0038999971002340317 0.20013436675071716
-0.012028519064188004 0.11159908771514893 0.06733615696430206 -0.9002047777175903 -0.1935235559940338 0.3901025950908661
-0.02796708419919014 -0.3785054087638855 -0.3620166778564453 0.8626186847686768 0.035589732229709625 0.504601240158081
-0.06611984223127365 -0.24782520532608032 -0.2848547697067261 -0.8314247131347656 0.1906871497631073 -0.5218921303749084
-0.015117393806576729 0.5708707571029663 0.09131684899330139 0.9129797220230103 0.3808039426803589 0.14647987484931946
-0.08979441225528717 0.1158469170331955 -0.2374018430709839 -0.3911633789539337 -0.9201694130897522 0.0167160052806139
-0.08445744216442108 0.31821751594543457 -0.1901889443397522 -0.6204126477241516 0.7221118211746216 -0.3060109317302704
-0.03196025639772415 0.5962547063827515 0.05804206803441048 -0.9126020669937134 -0.07188920676708221 -0.4024791121482849
-0.08403611928224564 -0.004479251801967621 -0.06304395198822021 0.9498962163925171 -0.04498107358813286 -0.30931195616722107
-0.0016067884862422943 0.3117459714412689 0.016186170279979706 0.7712211608886719 -0.3865658640861511 -0.5057517886161804
-0.0732906386256218 0.07923097163438797 -0.20593172311782837 -0.8947221636772156 -0.1736660599708557 -0.4114758372306824
-0.022529302164912224 0.2681291103363037 0.009804945439100266 0.8300403356552124 -0.334965318441391 -0.44590508937835693
-0.13954605162143707 0.15626901388168335 -0.3037996292114258 -0.7999063730239868 -0.5712633728981018 -0.183869406580925
-0.0684482678771019 0.05508170649409294 -0.01792914792895317 0.8142156600952148 0.11042509973049164 -0.5699641704559326
-0.06752036511898041 -0.22980421781539917 -0.2449672818183899 0.8519772887229919 -0.06498286873102188 0.5195305347442627
-0.036314088851213455 -0.39415448904037476 -0.21473181247711182 -0.7528700232505798 -0.5310021638870239 0.38887453079223633
0.03188428282737732 0.10170818865299225 0.3417145907878876 0.8996233940124512 -0.19235555827617645 0.3920166790485382
0.026529505848884583 0.46721935272216797 -0.03244910016655922 0.8134599924087524 -0.5712671875953674 0.10925474762916565
0.0054468028247356415 0.5479657649993896 0.055621955543756485 0.8529338240623474 0.45017319917678833 0.2642878592014313
-0.07421795278787613 -0.24418270587921143 -0.1281256526708603 -0.7639699578285217 -0.5810394883155823 0.28061172366142273
-0.16965416073799133 -0.013434842228889465 -0.2281130701303482 0.7117428779602051 -0.7020650506019592 -0.02295040339231491
-0.07390005141496658 -0.3201011121273041 -0.1899719089269638 0.8640394806861877 0.24519217014312744 -0.43967777490615845
0.00958934798836708 0.17461034655570984 0.07474413514137268 0.8987493515014648 -0.3061409890651703 -0.3138905167579651
-0.1127382218837738 0.2134028971195221 -0.10157173871994019 0.8024483323097229 0.041285187005996704 -0.5952917337417603
-0.14525508880615234 0.15212643146514893 -0.19824011623859406 0.734124481678009 0.52701735496521 -0.42815184593200684
-0.20133563876152039 -0.0904511883854866 -0.35224172472953796 -0.8777897953987122 -0.1523166000843048 0.45418572425842285
0.04467198997735977 0.09150752425193787 0.09095418453216553 -0.6393262147903442 -0.7259659767150879 0.253447026014328
-0.034082114696502686 0.5947150588035583 0.09727498888969421 -0.929888904094696 -0.34763625264167786 -0.12023189663887024
-0.050461992621421814 -0.44916486740112305 -0.3583618104457855 0.945366621017456 -0.1873023360967636 0.26683297753334045
-0.03664744272828102 -0.3464345932006836 -0.17331700026988983 0.7801453471183777 0.42969316244125366 -0.4546835124492645
0.02150178700685501 0.17280371487140656 0.21914023160934448 0.9662553668022156 0.1276359260082245 -0.22374007105827332
0.0035252943634986877 0.20887455344200134 0.21528545022010803 0.9901597499847412 0.03125085309147835 -0.13640791177749634
0.032952480018138885 0.0732637420296669 0.30048781633377075 0.9583444595336914 -0.2361767441034317 0.16061271727085114
-0.1404152810573578 0.14628925919532776 -0.29459908604621887 -0.7360125184059143 -0.6331884860992432 -0.23949530720710754
-0.12278406322002411 -0.04810279607772827 -0.10267001390457153 0.7573317885398865 -0.03884595260024071 -0.6518738269805908
0.012124046683311462 0.24411219358444214 0.07760874927043915 0.95052170753479 -0.15682737529277802 -0.26816728711128235
-0.020615678280591965 0.5764734745025635 0.20002971589565277 0.9971931576728821 0.07479071617126465 -0.0034863105975091457
-0.0011417269706726074 0.552814245223999 0.1845204085111618 0.7712526321411133 0.5735384821891785 0.2760853171348572
-0.013519860804080963 0.5720299482345581 0.06177864596247673 0.903046727180481 0.2846258580684662 0.32170605659484863
-0.037019770592451096 -0.3850741982460022 -0.1946335732936859 -0.8009166121482849 -0.4817953407764435 0.35553595423698425
0.034345969557762146 -0.03286323696374893 0.19597767293453217 0.805324912071228 0.13239435851573944 0.5778610706329346
0.035466939210891724 0.05560862272977829 0.23967856168746948 0.97148197889328 -0.22907845675945282 0.06120382621884346
0.011889249086380005 -0.047636523842811584 0.2399815320968628 -0.9441792368888855 -0.2824147939682007 -0.16960939764976501
-0.12278406322002411 -0.04810279607772827 -0.10267001390457153 0.7573317885398865 -0.03884595260024071 -0.6518738269805908
-0.0378856360912323 -0.3377406597137451 -0.14337274432182312 -0.781114399433136 -0.36066585779190063 0.5096866488456726
-0.04777083918452263 -0.3612125515937805 -0.34491267800331116 -0.7880329489707947 -0.06740789860486984 -0.611931562423706
-0.09541983902454376 -0.7244254350662231 -0.3756377100944519 0.8221562504768372 -0.49366113543510437 -0.2834744453430176
0.03169526159763336 0.08209136873483658 0.3308923840522766 0.9060556292533875 -0.2496701329946518 0.34165486693382263
-0.05133746936917305 -0.43068909645080566 -0.32812803983688354 -0.9800294041633606 -0.19792583584785461 0.019176140427589417
-0.03175962716341019 -0.5251429677009583 -0.39764654636383057 0.9912854433059692 -0.12852275371551514 0.028898226097226143
-0.09641969949007034 0.1583009660243988 -0.0801645815372467 0.9224328398704529 -0.0608760304749012 -0.3813289701938629
0.00492621585726738 0.03463761880993843 0.4329107701778412 -0.920864462852478 0.32273876667022705 0.21874265372753143
0.011587444692850113 0.2437228262424469 0.0875304639339447 0.9736448526382446 -0.1805221438407898 -0.13938233256340027
-0.009877249598503113 0.14204776287078857 0.04879138991236687 0.9503119587898254 -0.17421723902225494 -0.2579837739467621
0.009235423058271408 0.03776445984840393 0.35323408246040344 0.9729455709457397 -0.16221016645431519 0.1645139902830124
0.014674495905637741 0.15814679861068726 0.3382445275783539 0.9434252977371216 0.20999103784561157 -0.25661730766296387
0.03948042541742325 0.1656590700149536 0.24421444535255432 0.9959654808044434 0.04206438362598419 -0.07926727831363678
0.03082927316427231 0.15938162803649902 0.40417325496673584 -0.9878997206687927 0.1512136310338974 -0.03447602316737175
0.015226293355226517 0.18765604496002197 0.3494364321231842 0.8862786889076233 0.3152543902397156 -0.339300274848938
-0.034729063510894775 0.3362470865249634 -0.08038771152496338 -0.8183161020278931 0.480365514755249 0.3156069219112396
-0.03715285658836365 0.05737873166799545 -0.2392430156469345 0.47280699014663696 -0.266531765460968 0.8398894667625427
0.03599444776773453 0.026771966367959976 0.20844916999340057 0.86343914270401 -0.3399970829486847 0.3726591467857361
-0.03190681338310242 -0.45810312032699585 -0.34557342529296875 0.9956715106964111 -0.020129526033997536 0.09073581546545029
-0.11028201133012772 0.25284677743911743 -0.11930616199970245 0.8199491500854492 -0.23414495587348938 -0.5223596096038818
-0.08832748234272003 -0.1783977746963501 -0.1092357486486435 0.8755807876586914 0.11783601343631744 -0.4684794545173645
0.003121688961982727 0.5270201563835144 0.0844583511352539 0.8950057029724121 0.418059378862381 0.15553505718708038
-0.010099653154611588 0.6800277233123779 0.07609193027019501 -0.9955528378486633 0.09008326381444931 0.027558542788028717
-0.08500833809375763 -0.2139459252357483 -0.19850368797779083 -0.9443708658218384 -0.28644344210624695 -0.16159796714782715
-0.05620649829506874 -0.2526675760746002 -0.10466068983078003 -0.6845960021018982 -0.5759326219558716 0.44679969549179077
-0.10135136544704437 0.07910415530204773 -0.04455696791410446 0.8966843485832214 0.09388244897127151 -0.43260058760643005
0.0036432072520256042 0.4985109269618988 0.05358360335230827 0.7547960877418518 -0.1471661925315857 0.6392378807067871
0.006718728691339493 0.1531951129436493 0.11361265182495117 0.8777538537979126 -0.27667132019996643 -0.3911536633968353
-0.1476011872291565 -0.06460431963205338 -0.3129032552242279 -0.9167954921722412 0.3294943869113922 -0.22565339505672455
-0.02614440768957138 -0.2716667652130127 -0.3181651830673218 -0.8430041670799255 0.22509989142417908 -0.48854273557662964
-0.007439229637384415 -0.3761618137359619 -0.3784630000591278 -0.881453812122345 0.04293905198574066 -0.4703141748905182
-0.08780070394277573 -0.1780155599117279 -0.11897584795951843 0.9009184837341309 0.24009011685848236 -0.361528217792511
-0.033154863864183426 0.6909428834915161 0.1503615826368332 0.905345618724823 0.4227168560028076 -0.04073987156152725
-0.017808789387345314 -0.4607200026512146 -0.24334968626499176 0.9048970937728882 0.36122941970825195 -0.22511014342308044
-0.14421707391738892 0.15287962555885315 -0.21743273735046387 0.7903352379798889 0.4798993468284607 -0.3808763325214386
0.0018169134855270386 -0.09375705569982529 0.3976917266845703 -0.9917845726013184 0.021894799545407295 -0.12603168189525604
0.023510567843914032 0.5133591890335083 0.05889274552464485 0.7593921422958374 -0.21379272639751434 0.6145049333572388
-0.018645817413926125 0.6162722110748291 0.1918080896139145 0.9745379090309143 0.09365953505039215 -0.20372489094734192
-0.18646416068077087 -0.0631842240691185 -0.24276749789714813 -0.966866672039032 -0.10743482410907745 -0.23157408833503723
-0.0707724541425705 -0.02275393158197403 -0.03092348203063011 0.8999636173248291 0.07000435888767242 -0.4303078353404999
-0.038548074662685394 -0.6259923577308655 -0.3426312208175659 -0.8765615820884705 0.23359526693820953 0.42080044746398926
-0.03567350655794144 0.5935603380203247 0.12669959664344788 0.9259335398674011 0.3635576367378235 -0.1023373156785965
-0.11168009042739868 0.24241697788238525 -0.10037589073181152 0.8452271223068237 -0.14320696890354156 -0.5148619413375854
0.025486938655376434 0.2533191442489624 0.2025073766708374 0.92164546251297 -0.3853253126144409 -0.04576002061367035
-0.017671741545200348 0.41553932428359985 0.02574266865849495 0.9754438400268555 -0.03902295604348183 -0.2167639136314392
-0.01502218097448349 0.38868477940559387 -0.04439808055758476 0.9653991460800171 -0.2309272438287735 -0.12114918977022171
-0.07004641741514206 0.02536603808403015 -0.00936775840818882 0.8797922730445862 -0.06703978776931763 -0.47060734033584595
0.0437178909778595 0.48001304268836975 0.022312704473733902 0.7740007042884827 -0.5237294435501099 0.3558516502380371
-0.016762634739279747 0.0708736777305603 -0.244874969124794 0.5080778002738953 -0.1119094267487526 0.8540100455284119
-0.08254574984312057 -0.2026698887348175 -0.23706236481666565 0.7641757130622864 0.48655447363853455 0.4234386086463928
-0.0958949625492096 0.158681720495224 -0.08986684679985046 0.9609900116920471 0.12354554235935211 -0.2474565953016281
-0.1238676980137825 -0.13362780213356018 -0.14491534233093262 0.7890043258666992 0.3881431519985199 -0.4762531816959381
0.032249145209789276 0.11171270906925201 0.3421269357204437 0.9009315371513367 -0.20259332656860352 0.38376864790916443
-0.08537666499614716 -0.25216978788375854 -0.2195909023284912 0.9884708523750305 -0.08211180567741394 0.12721212208271027
-0.015511447563767433 0.09096630662679672 -0.25390881299972534 0.5127860307693481 0.05950837954878807 0.8564515709877014
-0.08627177774906158 -0.290775865316391 -0.23093794286251068 0.9987296462059021 0.014245727099478245 -0.04833434149622917
-0.08655637502670288 0.3166944980621338 -0.15137989819049835 0.7013562917709351 -0.7095099687576294 -0.0685194730758667
-0.03529231250286102 -0.09604964405298233 -0.015067152678966522 -0.6476807594299316 -0.21358704566955566 0.731361985206604
0.01505112275481224 0.19723185896873474 0.35980677604675293 0.9100291728973389 0.26408734917640686 -0.31953832507133484
-0.013541582971811295 0.1307651698589325 -0.2621304392814636 -0.30314192175865173 -0.28800463676452637 -0.90838223695755
0.028153903782367706 0.19703656435012817 0.11040639877319336 0.9617956280708313 0.11900825798511505 -0.2465486079454422
-0.09678658843040466 0.12022564560174942 -0.10116983950138092 0.9978787302970886 -0.03855420649051666 0.05245588719844818
0.001889292150735855 0.14969077706336975 0.20290833711624146 -0.9976482391357422 0.02796078287065029 0.0625796839594841
0.034262485802173615 0.18135249614715576 0.3550107777118683 0.9417920708656311 0.18245045840740204 -0.2823821008205414
-0.03711498901247978 -0.20288828015327454 -0.05891864374279976 0.6210743188858032 0.35213425755500793 -0.7001915574073792
-0.05994138494133949 -0.6949308514595032 -0.35866737365722656 -0.7582685947418213 0.39601370692253113 0.5178821682929993
-0.15607403218746185 -0.06140328198671341 -0.14937002956867218 0.8404093384742737 0.04587936773896217 -0.540006697177887
0.03617028146982193 0.017159663140773773 0.1980394423007965 0.8536266684532166 -0.41965606808662415 0.30856162309646606
0.0038094855844974518 -0.05349934846162796 0.38937535881996155 0.9986470937728882 -0.04902941733598709 0.017326688393950462
0.022929422557353973 0.15443366765975952 0.1784803718328476 -0.938517153263092 0.2734896242618561 -0.21068677306175232
-0.11642801016569138 -0.7825409770011902 -0.39104580879211426 -0.9745181798934937 0.1657150387763977 0.1511715054512024
-0.08556082844734192 -0.27128171920776367 -0.23013447225093842 -0.9942440390586853 0.06225886195898056 -0.08719301223754883
-0.028884921222925186 -0.44631803035736084 -0.39439764618873596 0.9486821293830872 -0.16768372058868408 0.2681126892566681
-0.0768686980009079 -0.6554076671600342 -0.3799434304237366 0.8327584266662598 -0.3534448742866516 -0.42613402009010315
-0.1564495861530304 -0.12711921334266663 -0.19052594900131226 0.789567768573761 0.4784599244594574 -0.3842640221118927
0.01644306629896164 0.3052428066730499 0.04037715867161751 0.7921446561813354 -0.4472716152667999 -0.4152769446372986
-0.03369826823472977 0.6618821620941162 0.13933970034122467 0.9978787302970886 -0.03855420649051666 0.05245588719844818
0.03322950750589371 0.30745211243629456 0.09500591456890106 -0.911216676235199 0.3073732852935791 0.2742367684841156
-0.10567726194858551 -0.20760315656661987 -0.1729895919561386 0.9451042413711548 0.32493856549263 0.03453846648335457
0.022066719830036163 0.23143139481544495 0.2514837086200714 0.9489791989326477 -0.09629131853580475 -0.3002772331237793
0.03724093735218048 0.44620436429977417 0.12067621946334839 -0.8762925863265991 -0.3149247169494629 0.3646007776260376
-0.09260177612304688 -0.7034023404121399 -0.4137946665287018 0.9325905442237854 -0.3278358578681946 -0.15099205076694489
0.023492448031902313 -0.12839722633361816 0.33223044872283936 -0.9742154479026794 0.07655201107263565 -0.21223576366901398
0.031141363084316254 0.05246990546584129 0.31965795159339905 -0.9205281734466553 0.2972373068332672 -0.2535308599472046
-0.10565166175365448 -0.1508709192276001 -0.13177946209907532 0.8448682427406311 0.2788890600204468 -0.45652875304222107
-0.05176014080643654 -0.5838838219642639 -0.4326831102371216 -0.9184689521789551 0.36506637930870056 0.1521226018667221
-0.06645063310861588 -0.20047202706336975 -0.24375832080841064 0.7444937825202942 0.5376052856445312 0.3958654999732971
0.013559356331825256 0.2548198699951172 0.0581744946539402 -0.8925207853317261 0.1464855819940567 0.42655447125434875
0.007645752280950546 0.09482872486114502 0.4254159927368164 0.960538387298584 -0.2533385455608368 -0.1148286834359169
0.013894960284233093 0.021739546209573746 0.25281673669815063 0.9042524695396423 -0.4257845878601074 -0.032170601189136505
0.007880538702011108 0.41492247581481934 -0.08846011757850647 0.7882468104362488 -0.5970199108123779 0.14911167323589325
0.04553529620170593 0.5298466086387634 0.024366669356822968 0.6752066612243652 -0.5147578120231628 0.5283183455467224
-0.1116797924041748 -0.7223819494247437 -0.4371560513973236 0.9414727687835693 -0.31425178050994873 -0.12196248769760132
-0.11309093236923218 0.20373153686523438 -0.1019703596830368 0.7556846141815186 0.09435035288333893 -0.6481040120124817
-0.033193692564964294 0.6049152612686157 0.08787129819393158 0.9497880935668945 0.1801341474056244 0.2558404803276062
-0.026655197143554688 0.16921155154705048 0.015589907765388489 0.8074886798858643 0.09108858555555344 -0.5828078985214233
0.028907157480716705 0.27520686388015747 0.1535310298204422 -0.8617180585861206 0.4847974181175232 0.14971141517162323
-0.1542174518108368 -0.16289573907852173 -0.2592834234237671 -0.6960618495941162 -0.6848911643028259 0.21545745432376862
-0.20275864005088806 -0.211679607629776 -0.41427263617515564 0.7370107173919678 0.20615796744823456 -0.6436724066734314
0.019527465105056763 0.4041418731212616 0.05439119413495064 0.7962185740470886 0.3118688464164734 -0.5184341073036194
-0.010402753949165344 0.40162912011146545 -0.12276051938533783 0.716632604598999 -0.6827236413955688 0.14256985485553741
-0.014623299241065979 0.012049663811922073 0.4158667027950287 -0.9747392535209656 0.13157638907432556 -0.1804744452238083
0.009776942431926727 0.19407862424850464 0.08548431098461151 0.9270921945571899 0.006822225172072649 -0.37477126717567444
-0.019178329035639763 0.615885853767395 0.20165415108203888 0.9830513000488281 0.04782683774828911 -0.1769821047782898
-0.037725456058979034 -0.37599387764930725 -0.17453531920909882 -0.791776716709137 -0.434581995010376 0.4292181134223938
0.026398152112960815 -0.07758963853120804 0.3142973482608795 -0.9788722991943359 -0.057740554213523865 -0.19615058600902557
-0.1377822756767273 0.23234125971794128 -0.28144049644470215 0.6886706352233887 -0.7226864695549011 0.05879678204655647
0.02885042130947113 0.4592372477054596 -0.08246704190969467 -0.7832319140434265 0.5863032937049866 -0.20687229931354523
-0.1835901141166687 -0.1632084846496582 -0.3709571361541748 0.8435189723968506 0.10187692940235138 -0.5273489356040955
