ply
format ascii 1.0
element vertex 398
property float x
property float y
property float z
property float nx
property float ny
property float nz
end_header
0.046574220061302185 -0.12717968225479126 -0.08608203381299973 0.8141140937805176 -0.31987860798835754 0.4846605956554413
0.08287890255451202 0.6854062676429749 0.18821483850479126 -0.5418332815170288 -0.6522021293640137 -0.5301405787467957
0.06079687550663948 0.1132187470793724 -0.03889062628149986 0.8028507232666016 -0.1966009885072708 0.5628309845924377
0.05658593773841858 0.10511328279972076 0.031914062798023224 0.41473910212516785 -0.8929330706596375 -0.17510554194450378
0.10443359613418579 0.034203123301267624 -0.37013280391693115 0.7508975863456726 -0.657229483127594 0.0648244246840477
0.10407031327486038 -0.07098828256130219 -0.13344530761241913 0.8009988069534302 -0.3260728418827057 0.5020731091499329
0.04121093824505806 -0.37803515791893005 -0.2534218728542328 0.965961217880249 -0.06806398183107376 0.24957218766212463
-0.154722660779953 0.11833593994379044 -0.3101249933242798 -0.5887267589569092 -0.7763028144836426 -0.22528816759586334
0.1449257880449295 0.21390624344348907 -0.3446054756641388 0.022262023761868477 -0.4990609884262085 -0.8662808537483215
0.10427343845367432 0.41582420468330383 0.05609765648841858 0.9824363589286804 -0.11708299070596695 0.14529405534267426
-0.07844531536102295 0.1391015648841858 -0.26942187547683716 0.2655763030052185 -0.7216671109199524 -0.6392697691917419
-0.0940234363079071 0.11271875351667404 -0.2395624965429306 -0.4573764204978943 -0.5306205749511719 -0.7136166095733643
0.09201952815055847 0.23046094179153442 0.020496094599366188 0.9887840747833252 -0.13613450527191162 -0.061428844928741455
0.16022264957427979 -0.04851171746850014 -0.25416406989097595 0.9307765960693359 -0.27663347125053406 0.23901647329330444
-0.1315000057220459 0.13254687190055847 -0.4061289131641388 -0.3360327482223511 0.8944599032402039 0.2949974536895752
-0.10569140315055847 -0.16680468618869781 -0.37013280391693115 0.8069072365760803 -0.5127000212669373 0.29332467913627625
-0.02727343700826168 0.12250000238418579 -0.2288828194141388 0.7732381224632263 -0.6051537394523621 -0.189451202750206
0.07900781184434891 0.34900781512260437 -0.17749999463558197 -0.4759776294231415 -0.6460502743721008 0.5967112183570862
-0.00014453125186264515 -0.4378437399864197 -0.22066406905651093 0.3143852949142456 -0.5429641604423523 0.778685986995697
-0.045234374701976776 0.653683602809906 0.11204687505960464 0.9775809645652771 0.20471273362636566 0.049276843667030334
0.028046874329447746 -0.1012265607714653 0.40196484327316284 0.9372247457504272 0.34283435344696045 -0.0638306587934494
-0.03996093571186066 0.11773046851158142 -0.22364452481269836 -0.4883340895175934 0.6019441485404968 0.6318172812461853
0.027453124523162842 0.24826562404632568 -0.26833203434944153 -0.09560637921094894 -0.37672027945518494 0.9213801026344299
0.018906250596046448 0.33546873927116394 -0.21714843809604645 -0.15225864946842194 -0.6593711376190186 0.736238420009613
-0.02237890660762787 -0.5521601438522339 -0.43982812762260437 0.03690963238477707 -0.1782924383878708 0.9832850694656372
-0.10706640779972076 -0.16831250488758087 -0.2566913962364197 -0.2058483511209488 -0.813620924949646 -0.5437347292900085
0.13525390625 0.2880273461341858 -0.13313281536102295 0.9473880529403687 0.12540046870708466 0.29450058937072754
0.007105468772351742 0.06328906118869781 0.43248045444488525 0.8926720023155212 -0.06820590794086456 -0.4455161392688751
-0.08708202838897705 -0.07753124833106995 -0.29994142055511475 0.9145063757896423 0.10600857436656952 -0.390436053276062
0.0993671864271164 0.202699214220047 0.17308202385902405 0.9914779663085938 -0.12840861082077026 -0.021970124915242195
-0.06450781226158142 0.21410547196865082 -0.2853671908378601 -0.37100669741630554 -0.3197527825832367 0.8718441128730774
-0.10181640833616257 0.19969531893730164 -0.40674999356269836 0.9880973100662231 0.1478184312582016 0.04258469119668007
0.1519804745912552 0.04316406324505806 -0.25416406989097595 0.8082870841026306 0.5563295483589172 0.19279363751411438
0.10593750327825546 0.19669140875339508 -0.31269142031669617 0.527874767780304 0.1459036022424698 0.8366960883140564
0.039363279938697815 -0.3001093864440918 -0.26942187547683716 0.8568544387817383 0.2067430466413498 -0.47228991985321045
-0.11854687333106995 0.2185976505279541 -0.11683593690395355 0.9002023935317993 -0.0971423014998436 -0.4244985580444336
0.08561328053474426 -0.013226562179625034 -0.36572265625 0.8848674297332764 -0.1076379269361496 0.4532369077205658
0.12055468559265137 -0.10091015696525574 -0.20838671922683716 0.8183526396751404 -0.5627253651618958 0.11678647249937057
0.12339453399181366 0.27613282203674316 -0.32963281869888306 0.8361849784851074 -0.030737468972802162 0.5475855469703674
-0.0844101533293724 0.2642187476158142 -0.26957032084465027 0.1601337492465973 -0.6275928020477295 0.7618952989578247
-0.0475156232714653 0.7723827958106995 0.1372343748807907 -0.4778560996055603 0.5393134355545044 0.6933935284614563
-0.08867968618869781 -0.2456640601158142 -0.2673007845878601 0.8320622444152832 -0.10936855524778366 0.5437930822372437
0.08825390785932541 0.6875585913658142 0.17308202385902405 0.6695109605789185 0.6590597033500671 0.3426300585269928
0.1027539074420929 0.5625976324081421 0.09678906202316284 0.9948990345001221 -0.09293030947446823 0.03924131765961647
-0.03795703127980232 0.037757813930511475 -0.12111718952655792 0.9342333674430847 0.06069933995604515 0.351459264755249
-0.1780976504087448 -0.06460156291723251 -0.34571483731269836 0.5900709629058838 -0.36493533849716187 0.7201656103134155
-0.014085937291383743 0.07908203452825546 0.05922656133770943 -0.26021885871887207 -0.7618663311004639 0.593165934085846
-0.027542969211935997 0.17912109196186066 -0.20838671922683716 -0.009944790042936802 0.6085562705993652 -0.7934483885765076
-0.030285155400633812 0.6185469031333923 0.03575390577316284 0.9192534685134888 0.2702609896659851 0.2862376868724823
0.09227343648672104 0.18943749368190765 0.0810546875 0.9888941049575806 -0.02636471390724182 -0.14626479148864746
-0.09124218672513962 -0.24387109279632568 -0.12944531440734863 0.8307414054870605 0.2892053425312042 -0.4756353795528412
-0.007578125223517418 -0.7216523289680481 -0.40674999356269836 0.9431269764900208 -0.3310432434082031 0.030361507087945938
-0.07925000041723251 0.2496679723262787 -0.27610155940055847 -0.07081437110900879 0.4206218123435974 -0.9044681191444397
-0.1210625022649765 -0.19876952469348907 -0.17787109315395355 0.9079056978225708 0.4183357357978821 -0.02650410309433937
-0.0581367202103138 0.1576875001192093 -0.2862890660762787 -0.3987855613231659 0.527035653591156 0.7504688501358032
-0.0053906249813735485 0.5602187514305115 0.21226952970027924 -0.5852910876274109 -0.8085232973098755 0.06102808564901352
-0.0029843749944120646 0.1313515603542328 -0.15791015326976776 0.948394238948822 0.13171735405921936 0.2884421944618225
0.03405078127980232 0.5579140782356262 0.21443359553813934 0.037577394396066666 -0.9767005443572998 -0.2112913280725479
0.0009023437742143869 0.03307421877980232 -0.25633203983306885 -0.00308704050257802 0.23361004889011383 0.9723254442214966
0.11375781148672104 0.11468750238418579 -0.13209375739097595 0.9640013575553894 -0.16450808942317963 0.20889818668365479
-0.19327734410762787 -0.14219141006469727 -0.42136329412460327 0.8640809655189514 0.12336252629756927 -0.4880017936229706
-0.008769530802965164 0.34080860018730164 -0.20771874487400055 0.18081426620483398 -0.8243929743766785 0.5363603830337524
0.06730468571186066 -0.07220703363418579 -0.3119218647480011 0.4091334342956543 0.6139981150627136 0.6749934554100037
0.1969609409570694 0.25364452600479126 -0.268617182970047 0.8827766180038452 0.14569181203842163 0.44663113355636597
-0.04121484234929085 -0.5008437633514404 -0.28526952862739563 0.743789553642273 0.3408313989639282 -0.5749878287315369
0.0899960920214653 -0.07050390541553497 -0.33045703172683716 -0.3623133897781372 -0.6714370846748352 -0.646452784538269
-0.08455859124660492 -0.126527339220047 -0.2842382788658142 0.8269160985946655 -0.12007994949817657 -0.5493546724319458
-0.007679687347263098 0.17876172065734863 0.3472851514816284 0.9895139336585999 -0.13162079453468323 -0.05948247015476227
-0.07844531536102295 0.1391015648841858 -0.26942187547683716 0.2655763030052185 -0.7216671109199524 -0.6392697691917419
0.09214453399181366 0.007734375074505806 -0.10267968475818634 0.8454650044441223 -0.05139175429940224 0.5315523147583008
-0.07346484065055847 -0.40019920468330383 -0.25416406989097595 0.8950976729393005 0.3801630437374115 -0.2329726368188858
0.01324609387665987 -0.04299609363079071 -0.22816015779972076 0.8725318908691406 -0.2164064198732376 0.43801406025886536
0.008667969144880772 0.05696484446525574 0.24937500059604645 0.995604932308197 0.08931957185268402 0.028157975524663925
0.06415234506130219 0.3223320245742798 0.21303515136241913 0.6377356648445129 -0.6748891472816467 -0.37123826146125793
0.027234375476837158 -0.1993398368358612 -0.2567695379257202 0.7688137292861938 0.06851878017187119 -0.6357913613319397
-0.13225781917572021 0.047566406428813934 -0.15498046576976776 0.9650641083717346 -0.24337150156497955 -0.09706456959247589
0.0895976573228836 0.0197148434817791 -0.10042187571525574 0.8663808107376099 -0.04739121347665787 0.4971301257610321
0.02254296839237213 -0.27077344059944153 -0.13209375739097595 0.833816409111023 -0.2878856062889099 0.4710329473018646
0.030179686844348907 -0.39384374022483826 -0.22364452481269836 0.852449357509613 -0.2262827306985855 0.47130271792411804
0.020246094092726707 -0.006355468649417162 0.18833984434604645 0.9761907458305359 0.18418866395950317 0.11456957459449768
0.04280078038573265 -0.3835703134536743 -0.3073398470878601 0.9771366715431213 0.13306964933872223 -0.16582037508487701
-0.09635546803474426 -0.2294882833957672 -0.1299101561307907 0.8494693040847778 0.26848074793815613 -0.4542246460914612
-0.11616015434265137 -0.17173047363758087 -0.1326562464237213 0.8242807388305664 0.30247238278388977 -0.47861436009407043
0.028050782158970833 0.26778125762939453 0.18833984434604645 0.852907657623291 -0.39082688093185425 -0.3461255729198456
-0.07618749886751175 -0.0989687517285347 -0.28667187690734863 0.8177875876426697 0.31730738282203674 -0.48014527559280396
0.07335546612739563 0.5848007798194885 0.18925000727176666 -0.3603587746620178 0.9327252507209778 0.012853349559009075
0.003484375076368451 0.20302343368530273 0.3731992244720459 0.5861044526100159 -0.6246054768562317 -0.5160906314849854
0.0007421874906867743 0.4590507745742798 0.09678906202316284 0.9413156509399414 0.2716221511363983 -0.20036526024341583
0.0835273414850235 0.5538593530654907 0.250675767660141 -0.5199944972991943 0.815478503704071 -0.2541663646697998
0.09849219024181366 0.20237109065055847 0.18833984434604645 0.9877241849899292 -0.15574748814105988 -0.011984845623373985
0.13467969000339508 0.2895195186138153 0.31248438358306885 0.9440333843231201 0.12995177507400513 0.30317237973213196
-0.026804687455296516 -0.7574999928474426 -0.3916718661785126 0.8017406463623047 -0.5335508584976196 0.2693239450454712
0.19176562130451202 0.27003514766693115 -0.2669062614440918 0.8495574593544006 0.23161235451698303 0.4739281237125397
0.0739765614271164 0.1239023432135582 0.020148437470197678 0.6722608804702759 -0.6182053685188293 -0.40729284286499023
-0.22619140148162842 -0.09898437559604645 -0.45252734422683716 0.7529643774032593 -0.071346215903759 -0.6541821956634521
-0.08553124964237213 0.14382421970367432 -0.33045703172683716 0.9308282732963562 -0.22043289244174957 -0.2914928197860718
0.16279686987400055 0.34297266602516174 -0.29994142055511475 0.16371580958366394 -0.5165778994560242 -0.840442955493927
-0.07395703345537186 0.18783985078334808 -0.02289453148841858 0.8029516935348511 -0.23091071844100952 -0.5494987368583679
0.10767968744039536 0.4666406214237213 0.09678906202316284 0.9865835309028625 -0.08423829078674316 0.13984578847885132
0.10899218916893005 0.6301484107971191 0.21123047173023224 0.9586321115493774 0.10510559380054474 0.26453226804733276
0.02172265574336052 -0.062171876430511475 -0.01687890663743019 0.6985673308372498 -0.3345049023628235 0.632542610168457
-0.0542304702103138 0.307980477809906 -0.05259765684604645 0.8150172233581543 -0.4042717516422272 -0.41510388255119324
0.07118359208106995 0.5867031216621399 0.1701367199420929 -0.39153388142585754 0.91704261302948 -0.07572368532419205
0.11582031100988388 0.5980547070503235 0.15782421827316284 0.8863183856010437 -0.4331006407737732 0.16390110552310944
-0.12837499380111694 0.06819140911102295 -0.19535155594348907 0.8791448473930359 -0.3207165002822876 0.35248440504074097
0.06344921886920929 0.28700780868530273 0.23411718010902405 0.673570990562439 -0.45768409967422485 -0.5803682804107666
-0.07933203130960464 -0.010332031175494194 -0.2700898349285126 -0.4132176637649536 -0.3736347556114197 0.8304506540298462
0.15682031214237213 0.274289071559906 -0.23752343654632568 -0.4894096553325653 -0.7791541814804077 -0.3916592597961426
0.1027539074420929 0.5625976324081421 0.09678906202316284 0.9948990345001221 -0.09293030947446823 0.03924131765961647
0.09758593887090683 0.1857304722070694 0.23411718010902405 0.9955272674560547 -0.06502237170934677 0.06853875517845154
0.06756249815225601 0.20671483874320984 -0.2845820188522339 0.3505817651748657 -0.1380506306886673 0.9263014793395996
0.07322656363248825 0.16027343273162842 -0.04053906351327896 0.8842220902442932 -0.2525123953819275 0.39292338490486145
-0.17262890934944153 0.19451171159744263 -0.33045703172683716 0.9146014451980591 -0.37656888365745544 -0.147309347987175
-0.0034062499180436134 0.1559179723262787 0.32567188143730164 0.9970903992652893 0.04017786681652069 0.06478012353181839
0.12754297256469727 0.2623867094516754 0.27207422256469727 0.9176206588745117 -0.19720514118671417 -0.3450832664966583
0.0900898426771164 -0.03641015663743019 0.41722264885902405 0.9833191633224487 0.08769712597131729 0.15935060381889343
0.05076562613248825 0.7284140586853027 0.1366601586341858 -0.6060099005699158 -0.7860091924667358 -0.12223570793867111
-0.06669140607118607 0.1728867143392563 -0.29881641268730164 0.7148223519325256 -0.09624423831701279 -0.6926514506340027
-0.130433589220047 0.268742173910141 -0.4288632869720459 0.2253185212612152 0.6295632719993591 0.7435600757598877
-0.062199220061302185 -0.5297656059265137 -0.33045703172683716 0.8944199085235596 0.07090406864881516 -0.44157180190086365
-0.1449882835149765 0.25632813572883606 -0.20838671922683716 0.8417524695396423 -0.5284669995307922 0.11034242063760757
-0.039363279938697815 0.14501172304153442 0.0611562505364418 0.9404337406158447 -0.06693871319293976 -0.3333219587802887
0.11998046934604645 0.29195311665534973 -0.23127734661102295 -0.34329038858413696 -0.9320284128189087 0.11608095467090607
-0.03649218752980232 0.6567148566246033 0.0208125002682209 0.9455826878547668 0.13453532755374908 0.2962660491466522
0.10946093499660492 0.4673125147819519 0.08153124898672104 0.9950034618377686 -0.08388146758079529 0.05414843559265137
0.10535937547683716 0.05305078253149986 0.23411718010902405 0.9936338663101196 -0.06064290925860405 0.09494315832853317
0.10407031327486038 -0.07098828256130219 -0.13344530761241913 0.8009988069534302 -0.3260728418827057 0.5020731091499329
0.07855468988418579 0.17798437178134918 -0.01700390689074993 0.9568568468093872 -0.2838391959667206 0.06213145703077316
0.12489062547683716 0.1627812534570694 -0.3045898377895355 -0.20351693034172058 0.8891405463218689 0.4098901152610779
-0.0844101533293724 0.2642187476158142 -0.26957032084465027 0.1601337492465973 -0.6275928020477295 0.7618952989578247
-0.05711718648672104 -0.2310468703508377 -0.08631640672683716 0.554198682308197 0.45847833156585693 -0.6947383880615234
0.031714845448732376 -0.06724609434604645 0.31041014194488525 0.8729753494262695 0.4858984053134918 0.042623620480298996
0.017609374597668648 0.0574335940182209 0.44730859994888306 0.8490018248558044 -0.08581651002168655 -0.5213745832443237
0.10050000250339508 0.15422265231609344 0.17308202385902405 0.9970884323120117 0.07621680200099945 -0.002368081361055374
0.08601953089237213 0.021937500685453415 0.32567188143730164 0.984114944934845 -0.12124049663543701 0.1296861469745636
-0.13385938107967377 0.1669882833957672 -0.15297265350818634 0.9432547092437744 0.04702471196651459 -0.32872360944747925
0.2146015614271164 0.3404609262943268 -0.32725781202316284 0.890097975730896 -0.13076668977737427 0.4366070032119751
0.004921874962747097 -0.026750000193715096 -0.2108124941587448 0.5899980068206787 0.44173115491867065 0.6758520007133484
0.13903124630451202 0.40996092557907104 -0.40674999356269836 0.9193774461746216 -0.37684136629104614 -0.1128523051738739
-0.02778906188905239 0.6765390634536743 0.1994335949420929 0.6937029957771301 -0.34854575991630554 -0.6303110122680664
0.10074999928474426 0.07335546612739563 0.2941288948059082 0.9832631945610046 -0.12572486698627472 0.13185884058475494
0.1401015669107437 -0.07464843988418579 -0.2335195243358612 0.8215654492378235 -0.5626324415206909 0.09205945581197739
-0.12757031619548798 -0.05954296886920929 -0.3281523585319519 0.7305724620819092 0.311292827129364 -0.6077504754066467
0.02133203111588955 0.10156640410423279 0.4303515553474426 0.7901908755302429 -0.22024598717689514 -0.5719178915023804
0.11931250244379044 0.24235156178474426 -0.33018359541893005 0.7308248281478882 0.05437251552939415 0.6803959608078003
0.019019531086087227 -0.2676328122615814 -0.28673046827316284 0.7669470310211182 0.20730020105838776 -0.607304573059082
0.07182031124830246 0.6976796984672546 0.08153124898672104 0.6963554620742798 0.6348839402198792 -0.3346811532974243
-0.06884765625 0.09056640416383743 0.0052343751303851604 0.8094963431358337 0.06226456165313721 -0.5838140249252319
-0.06376562267541885 -0.2796679735183716 -0.31519922614097595 0.6485109329223633 -0.27129748463630676 0.7112181782722473
-0.028996093198657036 -0.43126562237739563 -0.4073086082935333 0.37013766169548035 -0.16258953511714935 0.9146380424499512
-0.01603125035762787 0.534250020980835 0.09678906202316284 0.9595299959182739 0.2799292504787445 -0.03068864345550537
-0.007496093865483999 0.5048554539680481 0.057945311069488525 0.9860243797302246 0.14700132608413696 0.07839950919151306
-0.006390625145286322 0.1140429675579071 0.13493359088897705 0.9319218993186951 0.27232950925827026 -0.23949573934078217
-0.05630859360098839 -0.41819921135902405 -0.2308671921491623 0.6976897120475769 0.5373495817184448 -0.4737979471683502
-0.027898438274860382 0.5786914229393005 0.11204687505960464 0.9562707543373108 0.29221436381340027 0.012532633729279041
-0.07676953077316284 0.31418749690055847 -0.11537890881299973 0.7818045616149902 -0.5569885969161987 -0.28025946021080017
-0.0389414057135582 0.614941418170929 0.19249218702316284 0.9441182017326355 0.20247535407543182 -0.2600855827331543
0.10291406512260437 0.5890234112739563 0.17308202385902405 0.5265634059906006 -0.8489757180213928 0.04439837485551834
-0.03235156089067459 -0.22260156273841858 -0.05553906410932541 -0.27789485454559326 -0.5329722166061401 0.7991965413093567
0.025730468332767487 0.7402031421661377 0.15782421827316284 -0.4521654546260834 -0.7657149434089661 -0.4574134051799774
-0.010488281026482582 -0.7060273289680481 -0.3677578270435333 0.7718409299850464 -0.3942579925060272 0.49882078170776367
0.004058593884110451 -0.2972343862056732 -0.13209375739097595 -0.6924933195114136 0.49992936849594116 -0.5201188325881958
0.11050000041723251 0.4187968671321869 -0.05580078065395355 0.9421519041061401 0.22692565619945526 -0.24668705463409424
0.11933984607458115 0.1592148393392563 -0.19312891364097595 0.9017307162284851 -0.43229740858078003 0.0008200494339689612
0.08333593606948853 -0.052781250327825546 0.21064452826976776 0.642933189868927 -0.7657997608184814 -0.013698452152311802
-0.059199217706918716 -0.2807304561138153 -0.320499986410141 0.5492784976959229 -0.29765576124191284 0.780829131603241
0.08186718821525574 -0.0015273437602445483 0.34855860471725464 0.9938865303993225 -0.08746804296970367 0.06737122684717178
0.08554687350988388 -0.04701171815395355 0.40196484327316284 0.9787651896476746 0.05108453705906868 -0.198517307639122
0.002703124890103936 0.09301172196865082 0.15782421827316284 0.9758004546165466 0.21688435971736908 -0.027833402156829834
0.13041406869888306 0.08217968791723251 -0.4102461040019989 -0.4644743502140045 0.5912824273109436 0.659278929233551
0.010964843444526196 0.6168046593666077 -0.010023437440395355 0.06196841970086098 -0.27084600925445557 -0.9606260061264038
-0.01777343824505806 0.7605273723602295 0.06058593839406967 0.26125404238700867 0.659598171710968 -0.7047528624534607
-0.005546874832361937 0.5218906402587891 0.020496094599366188 0.9667466878890991 -0.005457306746393442 0.25567758083343506
-0.05380859225988388 -0.03485937416553497 -0.26996874809265137 0.35474705696105957 0.5119026899337769 -0.7823746800422668
-0.02526562474668026 0.10632812231779099 -0.22410155832767487 -0.5484326481819153 0.08165192604064941 -0.8321986198425293
0.06620312482118607 0.42478907108306885 -0.11262109130620956 -0.4283592700958252 -0.6406772136688232 0.6372135281562805
0.20772264897823334 0.3140937387943268 -0.3667890727519989 0.8237224817276001 -0.41031473875045776 -0.39130938053131104
-0.13057813048362732 -0.16084764897823334 -0.15556640923023224 0.8296252489089966 0.3754202127456665 -0.413257360458374
-0.010828125290572643 -0.28078123927116394 -0.32981249690055847 -0.29239198565483093 -0.4831352233886719 0.8252801299095154
0.10071484744548798 0.33396875858306885 0.31067967414855957 0.4926868677139282 0.864571213722229 0.09887497127056122
0.14423437416553497 0.3497539162635803 -0.31548047065734863 0.7757838368415833 -0.3853483200073242 -0.4996660053730011
0.1048593744635582 0.501339852809906 0.1340624988079071 0.9042103886604309 -0.09791397303342819 0.4157119691371918
-0.0036914062220603228 0.48210155963897705 0.020496094599366188 0.9867565035820007 0.11437252908945084 0.11502399295568466
-0.09665234386920929 -0.14809764921665192 -0.09572656452655792 0.7763804197311401 0.23413418233394623 -0.5851620435714722
0.033683594316244125 0.5130000114440918 -0.03772265464067459 -0.12032672762870789 0.6348633170127869 -0.7631972432136536
0.06566406041383743 0.545968770980835 0.24686327576637268 -0.20972053706645966 0.9771043658256531 -0.03583775460720062
-0.06457031518220901 0.05957422032952309 -0.17787109315395355 0.9905204772949219 0.007556856609880924 0.1371571272611618
-0.04786718636751175 0.6526914238929749 0.15782421827316284 0.9765926003456116 0.035593435168266296 -0.2121320366859436
-0.028019530698657036 -0.0021875000093132257 -0.25248438119888306 0.8891475200653076 -0.37124836444854736 0.26756551861763
-0.17011718451976776 -0.02900390699505806 -0.45838281512260437 -0.2700701057910919 0.624538242816925 0.7328124642372131
-0.20277343690395355 0.2313515692949295 -0.42201173305511475 0.7652109861373901 -0.21339651942253113 -0.6073829531669617
0.12625780701637268 0.2943125069141388 -0.33045703172683716 0.9645809531211853 -0.15741150081157684 0.2116723656654358
0.18331250548362732 0.20165234804153442 -0.22075000405311584 0.6718136072158813 -0.579719066619873 0.4610772728919983
-0.16307422518730164 0.25028905272483826 -0.4071445167064667 0.26864495873451233 -0.6981773376464844 -0.66361004114151
-0.004667968954890966 0.5059179663658142 0.020496094599366188 0.9823741912841797 0.06284940987825394 0.17604230344295502
0.08028906583786011 -0.1747773438692093 0.38670703768730164 0.2371537685394287 -0.5679436922073364 -0.7881612181663513
0.2146015614271164 0.3404609262943268 -0.32725781202316284 0.890097975730896 -0.13076668977737427 0.4366070032119751
0.11926562339067459 0.11237499862909317 0.4262656271457672 0.9069942235946655 0.21475768089294434 0.3622714579105377
0.05638672038912773 0.5614726543426514 0.17319531738758087 -0.6061388254165649 0.41804832220077515 -0.676632285118103
-0.033726561814546585 -0.0015585937071591616 -0.12248437851667404 0.8989763259887695 -0.17432324588298798 0.4018121063709259
-0.040410157293081284 -0.3307187557220459 -0.13441796600818634 -0.3141365349292755 -0.4960424304008484 0.8094813823699951
-0.036125000566244125 -0.2512265741825104 -0.0845937505364418 -0.23124074935913086 -0.43098026514053345 0.8722291588783264
0.056648436933755875 0.5615702867507935 0.020851561799645424 -0.3945941925048828 -0.26616543531417847 0.879460871219635
0.12366015464067459 0.24443359673023224 -0.11683593690395355 0.911799967288971 -0.07045529037714005 0.40454530715942383
-0.04726562649011612 -0.31248047947883606 -0.3424960970878601 -0.4601205587387085 0.3895834982395172 -0.797818124294281
-0.038023438304662704 0.6400937438011169 0.058640625327825546 0.9663550853729248 0.21975961327552795 0.13365474343299866
-0.12735937535762787 0.21107812225818634 -0.13444140553474426 0.9022024869918823 -0.07688368856906891 -0.42440494894981384
0.09904296696186066 0.2759374976158142 0.058640625327825546 0.9653620719909668 0.2609100639820099 -0.001404838520102203
-0.020613281056284904 0.26714062690734863 -0.2673398554325104 -0.061922188848257065 -0.3127673268318176 0.9478091597557068
0.10575390607118607 0.07469140738248825 0.14256641268730164 0.7828094959259033 -0.5368250012397766 -0.3146875202655792
-0.0712890625 -0.12226171791553497 -0.20838671922683716 0.7644368410110474 0.5022642016410828 -0.4041867256164551
-0.0450429692864418 0.6537538766860962 0.09678906202316284 0.972192108631134 0.21928149461746216 0.08220770210027695
0.09624218940734863 0.0703437477350235 0.4031093716621399 0.8929170966148376 -0.41581034660339355 -0.17262902855873108
0.17496484518051147 0.002902343636378646 -0.2720937430858612 0.9605093598365784 0.21281121671199799 0.1792570948600769
0.002703124890103936 0.09301172196865082 0.15782421827316284 0.9758004546165466 0.21688435971736908 -0.027833402156829834
-0.1533476561307907 0.011035156436264515 -0.30397656559944153 0.0384400449693203 -0.926239550113678 0.3749701976776123
-0.053089842200279236 -0.18062500655651093 -0.28467968106269836 0.36764776706695557 -0.28671377897262573 0.8846639394760132
-0.023558594286441803 0.3348163962364197 -0.0193476565182209 0.824266254901886 -0.36788007616996765 -0.4304061233997345
0.00917968712747097 0.07099609076976776 0.18833984434604645 0.9829487800598145 0.18218588829040527 -0.024899980053305626
-0.17325781285762787 -0.17689062654972076 -0.40674999356269836 0.8078548312187195 0.42640918493270874 -0.4068731367588043
-0.14504297077655792 0.0018749999580904841 -0.31519922614097595 -0.3719671964645386 -0.7500378489494324 0.5468853712081909
0.01668749935925007 0.5634961128234863 0.20438280701637268 0.031194813549518585 -0.9994399547576904 0.012111116200685501
-0.08267968893051147 -0.24065233767032623 -0.11683593690395355 0.7851548790931702 0.29968053102493286 -0.5419625639915466
0.034464843571186066 0.0968007817864418 0.08153124898672104 0.008044090121984482 -0.9667515754699707 -0.25559088587760925
-0.1863710880279541 -0.07919921725988388 -0.33045703172683716 0.8726819753646851 -0.09620239585638046 0.4787183403968811
-0.06330078095197678 -0.5696445107460022 -0.3445117175579071 0.972225546836853 0.09563244134187698 -0.2136162370443344
0.08801562339067459 -0.1184374988079071 0.40293750166893005 0.9028699994087219 -0.3295839726924896 0.2760438323020935
-0.07676953077316284 0.31418749690055847 -0.11537890881299973 0.7818045616149902 -0.5569885969161987 -0.28025946021080017
0.11590234190225601 -0.006722656078636646 -0.13090625405311584 0.8266643285751343 -0.010094861499965191 0.5626048445701599
-0.0594179704785347 0.04521093890070915 -0.17787109315395355 0.8060149550437927 0.5497806072235107 -0.21927408874034882
0.08333593606948853 -0.052781250327825546 0.21064452826976776 0.642933189868927 -0.7657997608184814 -0.013698452152311802
0.14673437178134918 0.31806251406669617 -0.28486719727516174 0.4432671368122101 -0.6816177368164062 -0.5821610689163208
-0.07717578113079071 -0.7104648351669312 -0.3607226610183716 0.7581260800361633 0.29715266823768616 -0.5804697275161743
0.02133203111588955 0.10156640410423279 0.4303515553474426 0.7901908755302429 -0.22024598717689514 -0.5719178915023804
0.10845702886581421 0.46693360805511475 0.059730470180511475 0.9956949949264526 -0.039604898542165756 0.08380263298749924
0.01785546913743019 -0.06242578104138374 0.40196484327316284 0.971352219581604 0.21392883360385895 0.10348588973283768
0.031257811933755875 -0.44233983755111694 -0.25666797161102295 0.8367100358009338 -0.31479713320732117 0.4481284022331238
-0.005882812663912773 0.18458202481269836 -0.17787109315395355 -0.45229199528694153 0.889701783657074 0.06215069070458412
-0.006308593787252903 0.2756015658378601 0.0572812482714653 0.8387545347213745 -0.43293896317481995 -0.33023425936698914
0.12864843010902405 0.3092382848262787 -0.33045703172683716 0.9603593945503235 -0.26523634791374207 -0.08578723669052124
0.1309843808412552 -0.07883593440055847 -0.425593763589859 -0.2828129529953003 -0.9381988644599915 0.19949880242347717
0.06530468910932541 -0.049503907561302185 0.4486015737056732 0.6815346479415894 -0.18425112962722778 0.7082104086875916
-0.019734375178813934 0.22264844179153442 0.09469140321016312 0.9366395473480225 -0.2618366479873657 -0.23269706964492798
0.04899609461426735 0.6891015768051147 0.2022695243358612 -0.30545365810394287 -0.6964685916900635 -0.6493300795555115
0.007492187432944775 0.4841992259025574 0.13677343726158142 0.6543697118759155 0.3962659239768982 -0.6440292000770569
0.11066406220197678 0.0921328142285347 0.44835546612739563 0.836603581905365 0.05883416533470154 0.5446401834487915
-0.03582421690225601 -0.03933984413743019 -0.26942187547683716 -0.5153682827949524 0.8187581300735474 -0.2530427575111389
-0.09514453262090683 -0.14485156536102295 -0.40674999356269836 0.9829791188240051 -0.0677005723118782 0.17078851163387299
-0.22250781953334808 0.2121250033378601 -0.45252734422683716 0.8117111325263977 -0.1421278864145279 -0.5665021538734436
0.06301562488079071 -0.12755078077316284 0.4263242185115814 0.4009043872356415 -0.5159292221069336 0.7570288777351379
0.0880429670214653 0.019929688423871994 0.30876561999320984 0.9790869951248169 -0.1432529091835022 0.14445500075817108
0.13364844024181366 -0.08242578059434891 -0.20838671922683716 0.8422926068305969 -0.5094583034515381 0.1760551631450653
0.1654960960149765 0.03390234336256981 -0.28467968106269836 0.8125147819519043 0.5781961679458618 0.07422172278165817
0.0906367152929306 -0.14100390672683716 -0.2309296876192093 0.6922959089279175 -0.674394428730011 -0.2567460536956787
0.045851562172174454 0.13367968797683716 0.4362812638282776 -0.36199674010276794 0.538939356803894 0.7605936527252197
0.2146015614271164 0.3404609262943268 -0.32725781202316284 0.890097975730896 -0.13076668977737427 0.4366070032119751
0.08183984458446503 0.27558985352516174 -0.2520742118358612 -0.3168068826198578 0.7242755889892578 -0.6124200224876404
0.015210937708616257 -0.004527343902736902 0.23411718010902405 0.9878464341163635 0.13832926750183105 0.0708836168050766
0.16673046350479126 0.2795039117336273 -0.37168359756469727 -0.06520989537239075 0.38169699907302856 0.9219843149185181
-0.06574609130620956 0.10803515464067459 -0.25245702266693115 0.03877316415309906 0.3372718393802643 0.9406085014343262
0.1408046931028366 0.2692617177963257 -0.36185547709465027 -0.4398186504840851 -0.06329011172056198 -0.8958537578582764
0.045949216932058334 -0.4696718752384186 -0.3050273358821869 0.9581239223480225 -0.14998796582221985 0.24393074214458466
-0.14318358898162842 0.03225390613079071 -0.23261328041553497 0.48857778310775757 -0.8158052563667297 0.3094406723976135
0.10303124785423279 0.23390625417232513 -0.3065195381641388 0.726288914680481 -0.23292264342308044 0.6467236280441284
0.07901562750339508 -0.0657656267285347 0.38670703768730164 0.9694052934646606 0.027889706194400787 -0.243876114487648
-0.05971875041723251 0.7142265439033508 0.13663281500339508 0.930888295173645 -0.043663136661052704 -0.3626851439476013
0.11174609512090683 0.09141406416893005 -0.15498046576976776 0.9979079961776733 -0.06399986892938614 0.009142803959548473
0.02922656200826168 -0.08448437601327896 0.4484218657016754 0.4952722489833832 0.27561646699905396 -0.8238573670387268
0.009902344085276127 0.05545312538743019 0.23310156166553497 0.9937826991081238 0.10585837811231613 0.034496236592531204
-0.027480468153953552 -0.2688046991825104 -0.08467187732458115 0.15006417036056519 0.388542115688324 -0.9091291427612305
-0.05534765496850014 0.6906366944313049 0.13493359088897705 0.9757078886032104 0.14229391515254974 -0.16657306253910065
-0.22715234756469727 -0.1808476597070694 -0.47388672828674316 0.6845161318778992 0.3388170003890991 -0.6454770565032959
-0.09242187440395355 0.18039843440055847 -0.43822264671325684 0.9727160930633545 -0.13528920710086823 -0.18846802413463593
0.04574999958276749 0.26405078172683716 -0.25892186164855957 -0.06374102830886841 -0.4258827269077301 0.902530312538147
0.14042578637599945 0.39744532108306885 -0.40674999356269836 0.9552376866340637 0.12215904891490936 0.26944050192832947
-0.06039062514901161 -0.6705820560455322 -0.45263671875 0.4729185998439789 -0.10461050271987915 0.8748740553855896
0.07066406309604645 -0.0037031250540167093 0.43248045444488525 0.8845525979995728 -0.06879774481058121 0.4613388776779175
0.005253906361758709 0.09513281285762787 0.23411718010902405 0.9928867816925049 0.11864393949508667 0.0099735576659441
0.020636718720197678 -0.038804687559604645 0.37144529819488525 0.9786175489425659 0.1522466540336609 0.13830633461475372
0.027640625834465027 0.021335937082767487 0.13783203065395355 -0.6673619151115417 -0.11068215221166611 -0.7364628314971924
0.09403125196695328 0.08746875077486038 0.37284374237060547 0.9149802327156067 -0.3819781243801117 -0.1300147920846939
0.08935546875 -0.0944804698228836 0.40196484327316284 0.9918149709701538 -0.1249256581068039 -0.026393331587314606
0.10800390690565109 0.6053203344345093 0.23411718010902405 0.9509216547012329 0.08231567591428757 0.29828202724456787
-0.1922617256641388 0.2747734487056732 -0.43726953864097595 0.5137646198272705 -0.4459453821182251 -0.7329246997833252
-0.03751562535762787 -0.5333945155143738 -0.29994142055511475 -0.6152424812316895 -0.37838032841682434 0.6915959715843201
-0.09424609690904617 0.20042577385902405 -0.05766015499830246 0.8379638195037842 -0.21293902397155762 -0.5024675130844116
-0.011089843697845936 0.6339101791381836 -0.010023437440395355 0.5951768159866333 0.36667966842651367 0.7150598168373108
0.08186718821525574 -0.0015273437602445483 0.34855860471725464 0.9938865303993225 -0.08746804296970367 0.06737122684717178
-0.00033203125349245965 0.4278203248977661 -0.017957031726837158 0.9915873408317566 -0.1275167465209961 0.022227048873901367
0.22566016018390656 0.4050312638282776 -0.36860546469688416 0.8625509142875671 0.38402098417282104 0.32944461703300476
0.12538281083106995 0.14440234005451202 0.37144529819488525 0.9924354553222656 0.007487709168344736 0.1225392147898674
0.07801562547683716 0.11316797137260437 0.4596562385559082 0.10585372149944305 0.4243480861186981 0.8992906808853149
-0.07551562786102295 0.12687109410762787 -0.2540664076805115 0.29707857966423035 -0.7362357974052429 -0.6080306172370911
0.1537187546491623 0.060121092945337296 -0.37623438239097595 -0.06823273748159409 -0.902179479598999 -0.4259301722049713
-0.017957031726837158 -0.18372265994548798 -0.04260937497019768 -0.07584577053785324 -0.2716396450996399 0.9594057202339172
0.07786718755960464 0.3739296793937683 -0.14735156297683716 -0.5403706431388855 -0.601526141166687 0.5883586406707764
-0.14897266030311584 0.2183203101158142 -0.30757030844688416 0.6399617195129395 -0.7681974768638611 0.01793561689555645
0.09206640720367432 0.3133906126022339 -0.20801952481269836 -0.28218868374824524 -0.7791122794151306 0.5597800016403198
-0.04729297012090683 0.6529101729393005 0.13493359088897705 0.9862071871757507 0.16479091346263885 -0.015472079627215862
0.09337890893220901 0.2506953179836273 0.34299609065055847 0.06072179973125458 0.5216054916381836 0.851023256778717
0.032289061695337296 -0.11593359708786011 -0.05580078065395355 0.796741247177124 -0.23698361217975616 0.5559155344963074
0.008144531399011612 0.2989179790019989 0.055824220180511475 0.776660680770874 -0.44129055738449097 -0.4495117664337158
0.046785157173871994 0.4763554632663727 0.15839843451976776 0.1180947870016098 0.44867026805877686 -0.8858603835105896
-0.11037890613079071 -0.15099608898162842 -0.31519922614097595 0.8601375818252563 -0.4974095821380615 0.11290287971496582
0.02133203111588955 0.10156640410423279 0.4303515553474426 0.7901908755302429 -0.22024598717689514 -0.5719178915023804
-0.024964842945337296 0.17226561903953552 -0.27541014552116394 -0.09791024029254913 0.09611273556947708 0.9905432462692261
0.017710937187075615 -0.6592109203338623 -0.40378516912460327 0.9099351167678833 -0.31532809138298035 -0.2694183886051178
0.014843749813735485 -0.39100000262260437 -0.3689296841621399 0.6883804798126221 0.4366002678871155 -0.5792344212532043
-0.07039843499660492 0.06227734312415123 -0.24744921922683716 -0.5672315359115601 -0.29763439297676086 -0.7678946256637573
-0.17408202588558197 -0.0974414050579071 -0.3669101595878601 0.85881108045578 -0.33235037326812744 0.3898548185825348
0.09994921833276749 0.2499726563692093 0.03400781378149986 0.9904977083206177 -0.07642608880996704 -0.11433861404657364
-0.017992187291383743 0.15079297125339508 -0.2724257707595825 0.04115802049636841 0.5470155477523804 0.8361100554466248
-0.09807812422513962 0.25639453530311584 -0.2673085927963257 0.2232850193977356 -0.6378136873245239 0.7371143102645874
0.05330468714237213 -0.07543359696865082 -0.29994142055511475 0.5815035104751587 0.3350345492362976 0.7413538694381714
-0.035999998450279236 -0.2557070255279541 -0.32038670778274536 0.09799261391162872 -0.3893411159515381 0.9158661961555481
0.08445703238248825 0.030964843928813934 -0.33045703172683716 0.6927098035812378 -0.6193572878837585 0.36952629685401917
0.1283906251192093 0.21766406297683716 -0.13209375739097595 0.901639461517334 -0.1031816154718399 0.41999977827072144
0.10064452886581421 0.08907031267881393 0.31041014194488525 0.9834495782852173 -0.1620458960533142 0.0810432955622673
0.056648436933755875 0.5615702867507935 0.020851561799645424 -0.3945941925048828 -0.26616543531417847 0.879460871219635
0.034464843571186066 0.0968007817864418 0.08153124898672104 0.008044090121984482 -0.9667515754699707 -0.25559088587760925
-0.12586718797683716 0.06826172024011612 -0.08140625059604645 0.9518072605133057 -0.010725690051913261 -0.3065091371536255
0.1294296830892563 -0.08108203113079071 -0.19115625321865082 0.8356310725212097 -0.4241979718208313 0.3489653170108795
0.06698046624660492 0.4236210882663727 0.11382421851158142 0.346282422542572 -0.5532468557357788 0.7576320767402649
0.1109921857714653 0.2828710973262787 -0.08173827826976776 0.9311597943305969 -0.0363590307533741 0.362793892621994
0.03405078127980232 0.5579140782356262 0.21443359553813934 0.037577394396066666 -0.9767005443572998 -0.2112913280725479
0.15608593821525574 0.44756248593330383 -0.40674999356269836 -0.5592230558395386 0.7326635718345642 0.38790929317474365
-0.03406640514731407 0.14225000143051147 0.07964062690734863 0.9362367391586304 0.022384479641914368 -0.35065603256225586
-0.01618359424173832 -0.7046914100646973 -0.43596094846725464 0.6610144972801208 -0.30751585960388184 -0.6844661235809326
0.10199609398841858 -0.008226562291383743 -0.40674999356269836 0.9439722895622253 -0.07692631334066391 0.3209339678287506
-0.024335937574505806 0.5773476362228394 0.05820703133940697 0.9622424244880676 0.24390584230422974 0.12082810699939728
0.03952343761920929 0.15051953494548798 -0.2676132917404175 -0.12422992289066315 0.37227311730384827 0.9197714924812317
0.005988281220197678 0.053492188453674316 0.38670703768730164 0.9934477210044861 0.06406932324171066 -0.09464007616043091
0.06473828107118607 -0.04667968675494194 -0.32758983969688416 0.6970162391662598 0.41736727952957153 0.5830719470977783
-0.09255468845367432 -0.16285547614097595 -0.09560937434434891 0.7830744385719299 0.23190940916538239 -0.5770723223686218
0.10683593899011612 0.10153906047344208 0.37144529819488525 0.8948001265525818 -0.42324405908584595 -0.14211700856685638
-0.1931757777929306 -0.18471874296665192 -0.4371718764305115 0.6736965775489807 0.49680861830711365 -0.5470960140228271
-0.023113280534744263 0.36051562428474426 -0.04053906351327896 0.8702799677848816 -0.38300734758377075 -0.30970653891563416
-0.045878905802965164 -0.14531250298023224 -0.03968749940395355 0.5140962600708008 0.3039202094078064 -0.8020832538604736
-0.06853906065225601 0.09105859696865082 0.005605468526482582 0.8094963431358337 0.06226456165313721 -0.5838140249252319
0.10078124701976776 0.1380273401737213 0.18833984434604645 0.9956697225570679 0.08409342169761658 0.03962458670139313
-0.21287108957767487 -0.17548047006130219 -0.4609921872615814 0.6825266480445862 0.37249094247817993 -0.628814697265625
-0.13939453661441803 0.013042968697845936 -0.26942187547683716 -0.1693851351737976 -0.9542962312698364 0.24622632563114166
0.0972890630364418 0.30012109875679016 -0.04075000062584877 0.9860668778419495 -0.03662169724702835 0.16226834058761597
0.024675780907273293 -0.20030078291893005 -0.06746874749660492 0.7176827788352966 -0.4301372766494751 0.5476434230804443
0.028218749910593033 -0.0033554688561707735 0.14256641268730164 0.7698268294334412 0.013701519928872585 0.6381057500839233
-0.04341796785593033 0.11537109315395355 -0.1915859431028366 -0.7555959224700928 0.2750675678253174 -0.5944852232933044
-0.007148437667638063 0.18794922530651093 -0.1562539041042328 0.5034164786338806 -0.6907548308372498 -0.5190660953521729
-0.14271484315395355 0.20643749833106995 -0.16260936856269836 0.9184340238571167 -0.013070127926766872 -0.39535826444625854
0.11422265321016312 0.17568358778953552 0.3905312418937683 0.6814925074577332 0.43150049448013306 0.5910797119140625
0.06777343899011612 0.029531249776482582 -0.30644530057907104 0.6466228365898132 -0.5798035264015198 0.49568814039230347
-0.02644921839237213 -0.06428124755620956 -0.17787109315395355 0.6752179861068726 -0.5104705095291138 0.5324476361274719
0.12242968380451202 0.6121054887771606 0.18833984434604645 0.9787737131118774 -0.1753920614719391 0.10601696372032166
0.08742187172174454 0.5783554911613464 0.15648046135902405 -0.4881352484226227 0.7683680057525635 -0.41392582654953003
0.11462109535932541 0.07532031089067459 -0.21237890422344208 0.8157424330711365 0.5426283478736877 -0.20029664039611816
-0.052785154432058334 0.04915234446525574 0.021089844405651093 0.7059453725814819 0.1768719106912613 -0.6858261227607727
-0.08985937386751175 -0.30855467915534973 -0.28467968106269836 0.926403820514679 -0.023439038544893265 0.3758012652397156
-0.1916523426771164 0.0005742187495343387 -0.2287265658378601 0.7925719022750854 -0.5490862131118774 -0.2652056813240051
0.10036718845367432 -0.009777343831956387 0.2128945291042328 0.9620006084442139 -0.24844737350940704 0.1132640466094017
0.11410937458276749 0.24428905546665192 0.24937500059604645 0.9091174006462097 -0.37919050455093384 -0.17239528894424438
-0.11333203315734863 0.07384765893220901 -0.05234765633940697 0.9022904634475708 -0.02738703414797783 -0.4302579164505005
0.07519921660423279 -0.06720312684774399 0.37144529819488525 0.9840071201324463 0.0020030213054269552 -0.17811793088912964
0.14423437416553497 0.3497539162635803 -0.31548047065734863 0.7757838368415833 -0.3853483200073242 -0.4996660053730011
-0.0671992152929306 0.741042971611023 0.11204687505960464 0.9827489852905273 -0.012224502861499786 -0.18453995883464813
0.005976562388241291 0.6249765753746033 0.24988672137260437 -0.45639848709106445 0.20904715359210968 0.8648697733879089
-0.05589062348008156 0.19324609637260437 -0.2862538993358612 -0.4658105671405792 -0.08304392546415329 0.8809791207313538
0.06614062190055847 0.14214453101158142 -0.25352734327316284 0.22451889514923096 -0.738418459892273 -0.6358690857887268
0.10798828303813934 0.4993632733821869 0.09678906202316284 0.9979881644248962 0.06328503787517548 0.0038244121242314577
0.03833984211087227 -0.29296875 -0.21316015720367432 0.9753944277763367 -0.07854530215263367 0.20600096881389618
0.017421875149011612 0.5468242168426514 0.2518046796321869 0.45651036500930786 0.730392575263977 -0.5080599784851074
0.0817890614271164 0.16193360090255737 -0.2871640622615814 0.22722038626670837 0.49925318360328674 0.8361322283744812
-0.09078515321016312 0.16382811963558197 -0.34571483731269836 0.917272686958313 0.005125320516526699 -0.3982267379760742
-0.12001562863588333 -0.17521874606609344 -0.23408593237400055 -0.49646833539009094 -0.8092940449714661 -0.313946396112442
0.09227343648672104 0.18943749368190765 0.0810546875 0.9888941049575806 -0.02636471390724182 -0.14626479148864746
0.0817890614271164 0.16193360090255737 -0.2871640622615814 0.22722038626670837 0.49925318360328674 0.8361322283744812
0.004957031458616257 0.5460546612739563 0.23411718010902405 -0.4289413392543793 -0.9029428958892822 0.026523537933826447
0.1571914106607437 0.04512109234929085 -0.33045703172683716 -0.45538613200187683 -0.8847293257713318 -0.0993853434920311
0.1127304658293724 0.05286328122019768 -0.16260936856269836 0.9214678406715393 0.31059202551841736 0.23330146074295044
0.09758593887090683 0.1857304722070694 0.23411718010902405 0.9955272674560547 -0.06502237170934677 0.06853875517845154
0.11937109380960464 0.2591249942779541 0.34092968702316284 0.7307438850402832 0.18767333030700684 0.6563475728034973
-0.04288281127810478 0.29594141244888306 -0.025281250476837158 0.8213467001914978 -0.30919259786605835 -0.47936367988586426
0.010628906078636646 0.184019535779953 0.3855937421321869 0.6657496690750122 -0.3611404001712799 -0.6529586315155029
-0.003800781210884452 0.06611718982458115 0.040968749672174454 0.4406147301197052 -0.4158589839935303 0.7955626845359802
-0.1244804710149765 0.11030469089746475 -0.10157421976327896 0.980798602104187 -0.07491417229175568 -0.18006093800067902
0.004488281439989805 -0.20789062976837158 -0.28467968106269836 -0.6060790419578552 -0.26511818170547485 0.7499203681945801
0.2064179629087448 0.2734648585319519 -0.30820703506469727 0.9905381202697754 -0.042120445519685745 0.13061414659023285
0.004347656387835741 -0.5690898299217224 -0.29994142055511475 0.2820510268211365 -0.30048736929893494 0.9111281633377075
-0.10215234011411667 0.2229296863079071 -0.08288281410932541 0.8814858198165894 -0.205633744597435 -0.4250853359699249
0.09751171618700027 0.3365468680858612 0.0052343751303851604 0.9853664040565491 -0.10756003111600876 0.13222654163837433
0.11297265440225601 0.4849296808242798 0.020496094599366188 0.9934791922569275 0.11391843110322952 0.004652541130781174
-0.023992188274860382 -0.07283984124660492 0.006535156164318323 -0.22632093727588654 -0.36860454082489014 0.9016149640083313
0.07786718755960464 0.3739296793937683 -0.14735156297683716 -0.5403706431388855 -0.601526141166687 0.5883586406707764
-0.07365234196186066 -0.30293360352516174 -0.3089023530483246 0.7876874208450317 -0.18928153812885284 0.5862772464752197
-0.09151171892881393 -0.06466015428304672 -0.298640638589859 0.8581727743148804 0.18453191220760345 -0.4790485203266144
-0.008507812395691872 0.3938671946525574 -0.07899218797683716 0.8010486960411072 -0.5901228189468384 0.10037960857152939
-0.10569140315055847 -0.16680468618869781 -0.37013280391693115 0.8069072365760803 -0.5127000212669373 0.29332467913627625
0.0008789062267169356 0.5569062232971191 0.007609374821186066 0.7966617941856384 -0.0698576271533966 0.6003747582435608
-0.03406640514731407 0.14225000143051147 0.07964062690734863 0.9362367391586304 0.022384479641914368 -0.35065603256225586
-0.010136718861758709 0.17783984541893005 0.15782421827316284 0.9622315168380737 -0.055580850690603256 -0.2664981484413147
