ply
format ascii 1.0
element vertex 394
property float x
property float y
property float z
property float nx
property float ny
property float nz
end_header
0.20247147977352142 -0.11628491431474686 0.03401262313127518 0.42167574167251587 -0.8885995149612427 -0.18050065636634827
-0.1117737740278244 -0.11029289662837982 -0.1728881448507309 -0.36291974782943726 0.9305034875869751 0.049523212015628815
0.00796252116560936 -0.12324900925159454 -0.15627241134643555 -0.2038421928882599 0.7224802374839783 0.6606593132019043
0.13490182161331177 -0.13682320713996887 0.2402510643005371 0.2307594269514084 0.9692761898040771 0.08516872674226761
-0.08535731583833694 -0.09219023585319519 0.07494933158159256 0.6844395399093628 0.7290085554122925 0.009436900727450848
-0.05495057255029678 -0.15187717974185944 -0.07941527664661407 -0.25020480155944824 -0.9680337309837341 -0.017556795850396156
0.03516636788845062 -0.2091587781906128 0.15859806537628174 0.12345075607299805 -0.9672626852989197 0.22172705829143524
-0.14373166859149933 -0.1100667417049408 -0.016947919502854347 0.46175456047058105 0.8856529593467712 -0.049005601555109024
0.11720942705869675 -0.05798392370343208 -0.1875765472650528 0.5091435313224792 -0.7526114583015442 -0.41755110025405884
0.2405470311641693 -0.015309683978557587 -0.08554107695817947 0.007038859650492668 -0.8891487121582031 -0.4575643241405487
0.022585086524486542 -0.21261066198349 0.13125722110271454 0.13549983501434326 0.9410003423690796 0.31009379029273987
0.03887379914522171 -0.18329355120658875 0.09416523575782776 0.31105175614356995 0.7670392394065857 0.5611574053764343
0.018092792481184006 -0.14943456649780273 0.015585905872285366 -0.27800828218460083 -0.960403561592102 -0.01834254525601864
0.12862436473369598 -0.043076857924461365 -0.06850849837064743 -0.6322704553604126 0.7419268488883972 0.22311142086982727
-0.23392634093761444 -0.10208311676979065 -0.03915407136082649 -0.2324850708246231 -0.9699438214302063 -0.07183115929365158
0.05915353447198868 -0.10553716123104095 -0.11392275989055634 0.36291974782943726 -0.9305034875869751 -0.049523212015628815
0.013027194887399673 -0.1233261302113533 -0.11770803481340408 -0.17917269468307495 0.9194475412368774 0.3500191271305084
-0.07840291410684586 -0.13668453693389893 -0.14235280454158783 0.17225652933120728 -0.9098329544067383 -0.37753376364707947
0.2341030240058899 -0.10579291731119156 0.06868071854114532 0.36291974782943726 -0.9305034875869751 -0.049523212015628815
0.19849912822246552 -0.12354019284248352 0.14122338593006134 0.6580694317817688 -0.7508914470672607 -0.055737681686878204
-0.06558258086442947 -0.1331670731306076 -0.11449239403009415 -0.2080128937959671 0.9373898506164551 0.27934005856513977
0.00658750906586647 -0.12692633271217346 -0.09725460410118103 0.06993796676397324 0.9349839091300964 0.34772664308547974
0.10610921680927277 -0.15505430102348328 0.05629067122936249 -0.38454562425613403 0.6840043067932129 0.6198893785476685
-0.10559387505054474 -0.11786432564258575 0.014661147259175777 0.45930904150009155 0.6839191913604736 -0.5668243169784546
0.20061731338500977 -0.0785369873046875 0.021064195781946182 -0.3749653398990631 0.4644254744052887 0.8023154139518738
-0.0733184814453125 -0.13676196336746216 -0.10363797098398209 -0.057259250432252884 0.9470927715301514 0.3158111274242401
-0.13395006954669952 -0.08801537752151489 0.03479158505797386 0.10551406443119049 -0.8977756500244141 0.42762789130210876
0.1539236158132553 -0.15995869040489197 0.1044517382979393 -0.44405025243759155 0.8919003009796143 0.08563446998596191
0.18454429507255554 -0.06306727230548859 0.006998513825237751 -0.30677637457847595 0.40447208285331726 0.8615629076957703
-0.04491700977087021 -0.12234366685152054 -0.16641314327716827 0.03398745507001877 0.9833271503448486 0.1786411702632904
0.17128370702266693 -0.0891418606042862 0.005357005633413792 0.4023551344871521 -0.2614612579345703 -0.8773530721664429
-0.22722963988780975 -0.0946212187409401 -0.13028211891651154 -0.18035884201526642 -0.9822197556495667 -0.0521070621907711
0.2448161542415619 -0.03809718042612076 -0.020481906831264496 0.5918097496032715 -0.771113932132721 -0.2348286360502243
0.12740644812583923 -0.17048527300357819 0.10791318863630295 -0.48390138149261475 0.8744906783103943 0.033249493688344955
-0.1473655253648758 -0.10250523686408997 -0.1856527328491211 -0.17578266561031342 -0.9162644147872925 0.3599444329738617
0.15019334852695465 -0.12971720099449158 0.21879523992538452 -0.36291974782943726 0.9305034875869751 0.049523212015628815
0.11470528692007065 -0.12511879205703735 0.26671403646469116 -0.20818231999874115 -0.929207444190979 0.3053417503833771
0.12989942729473114 -0.04309627413749695 -0.058799684047698975 -0.6282417178153992 0.7569929957389832 0.17964959144592285
-0.04218003898859024 -0.14837336540222168 -0.05166316032409668 -0.034747395664453506 0.9987607598304749 0.03563237562775612
0.08342842757701874 -0.0985102653503418 -0.06805963069200516 -0.6678563356399536 0.7429083585739136 0.045332979410886765
0.1570044755935669 -0.032336317002773285 -0.062337879091501236 -0.2657405734062195 0.9501665830612183 -0.16298936307430267
-0.05043856054544449 -0.1371103674173355 0.07057870179414749 0.5177737474441528 0.8314433097839355 0.2015252411365509
0.08944813907146454 -0.18812458217144012 0.16117334365844727 -0.4949125051498413 0.8675235509872437 -0.04964407533407211
-0.14522279798984528 -0.21695436537265778 -0.3069758117198944 -0.22748976945877075 -0.69548499584198 0.6815783381462097
0.21019421517848969 -0.05236304551362991 -0.006156109273433685 0.10572006553411484 0.928514301776886 0.35592758655548096
0.21719658374786377 0.015550762414932251 -0.12660948932170868 0.8006494641304016 -0.411293625831604 -0.4356580376625061
0.1947420984506607 -0.12348298728466034 0.1126159131526947 0.7702522873878479 -0.6338266730308533 -0.07053487002849579
-0.11309033632278442 -0.08079800009727478 0.05204853415489197 0.48633524775505066 0.790020227432251 -0.3732908070087433
0.09828720986843109 -0.18461570143699646 0.16001953184604645 0.36291974782943726 -0.9305034875869751 -0.049523212015628815
0.038164034485816956 -0.15342405438423157 0.23763300478458405 0.5761234760284424 -0.5450747013092041 0.6090774536132812
0.12862436473369598 -0.043076857924461365 -0.06850849837064743 -0.6322704553604126 0.7419268488883972 0.22311142086982727
-0.01801396906375885 -0.14504308998584747 0.06285885721445084 -0.16484586894512177 -0.9610403180122375 -0.22187229990959167
0.0078536756336689 -0.1269456148147583 -0.08761350810527802 0.3140215277671814 0.854796290397644 0.4131752550601959
0.22687210142612457 -0.04522047936916351 -0.018139556050300598 -0.0951375961303711 0.8138436079025269 0.5732428431510925
0.14321139454841614 -0.09976591914892197 -0.0007466208189725876 -0.2005615383386612 0.26731595396995544 0.9425058364868164
0.11981476843357086 -0.1740131378173828 0.11856520920991898 0.7261548638343811 -0.6875205039978027 -0.003831441979855299
0.18722805380821228 -0.12336856126785278 0.0554010272026062 0.5075052976608276 -0.8146564960479736 -0.2806657552719116
-0.0010095052421092987 -0.12681065499782562 -0.1551012247800827 -0.21617799997329712 0.720194935798645 0.6592316627502441
0.00912512093782425 -0.10089042037725449 -0.17346762120723724 -0.19965700805187225 0.9166795015335083 0.3461729884147644
0.14383715391159058 -0.16344855725765228 0.0961073562502861 -0.36291974782943726 0.9305034875869751 0.049523212015628815
0.21719658374786377 0.015550762414932251 -0.12660948932170868 0.8006494641304016 -0.411293625831604 -0.4356580376625061
0.185124471783638 -0.040454618632793427 -0.019238661974668503 0.027545157819986343 -0.9551409482955933 -0.29486793279647827
-0.08751922845840454 -0.14397111535072327 -0.0722503736615181 -0.22652027010917664 0.9736852645874023 0.02501247264444828
0.028291065245866776 -0.145906001329422 0.024022746831178665 0.3447592556476593 0.9325979948043823 0.10678023099899292
0.164764404296875 -0.028730250895023346 -0.07322609424591064 0.029496461153030396 0.9441086053848267 -0.3283122777938843
0.22634626924991608 -0.022518843412399292 -0.05415348708629608 -0.36291974782943726 0.9305034875869751 0.049523212015628815
-0.014478176832199097 -0.20808634161949158 0.16902467608451843 0.4736716151237488 0.8513985276222229 -0.22529040277004242
0.16210469603538513 -0.03241398185491562 -0.0235027726739645 0.03436575084924698 -0.9740824699401855 -0.22356733679771423
0.04446649178862572 -0.2205531895160675 0.12533579766750336 -0.10416699945926666 0.9319319128990173 0.3473503291606903
0.1312558799982071 -0.16690044105052948 0.0687665194272995 -0.3440435528755188 0.7481490969657898 0.5673685073852539
0.1042797863483429 -0.0652124360203743 -0.1465102732181549 -0.42421311140060425 0.9047273993492126 0.038879625499248505
0.08234314620494843 -0.07601648569107056 -0.10426820069551468 -0.6744221448898315 0.6310434937477112 0.38332614302635193
0.13364344835281372 -0.17058025300502777 0.1554042547941208 0.6283238530158997 -0.6839895248413086 0.37063121795654297
-0.18351967632770538 -0.10609807819128036 0.011292305774986744 -0.07521605491638184 -0.9882059693336487 -0.1333848387002945
0.05991657078266144 -0.16503676772117615 0.22084972262382507 0.580488383769989 -0.527619481086731 0.6202023029327393
0.23285068571567535 -0.10577384382486343 0.05914487689733505 -0.36291974782943726 0.9305034875869751 0.049523212015628815
0.08727839589118958 -0.20304548740386963 0.11011683940887451 -0.11931411921977997 0.8909842371940613 0.43807685375213623
-0.06463930010795593 -0.1443195343017578 0.10196629166603088 -0.3159388303756714 -0.737342119216919 -0.5970839262008667
0.018201230093836784 -0.14575235545635223 -0.05280521139502525 -0.12058161199092865 0.9922809600830078 -0.028958085924386978
0.09792424738407135 -0.06511566042900085 -0.19490379095077515 -0.34439677000045776 0.84888756275177 0.40097475051879883
-0.20286774635314941 -0.10580345243215561 -0.13603153824806213 0.13705462217330933 0.9805272221565247 0.1406499743461609
0.1720922738313675 -0.12679597735404968 0.008880320005118847 0.42508214712142944 -0.5370087623596191 -0.7286472320556641
-0.05874907970428467 -0.1518193483352661 -0.1083386167883873 -0.07945389300584793 -0.8758127689361572 -0.47606632113456726
-0.08417167514562607 -0.12176967412233353 -0.1493583470582962 0.1897173821926117 0.7391816973686218 0.6462334990501404
0.13910269737243652 -0.12220948934555054 -0.003544554114341736 0.12161216884851456 -0.35554951429367065 -0.926711916923523
0.05700793117284775 -0.2171122431755066 0.15259003639221191 -0.2973468601703644 0.9012976288795471 -0.3150356709957123
0.023246148601174355 -0.1458291858434677 -0.014391232281923294 -0.09516534954309464 0.9938799142837524 -0.05609264597296715
0.1997990906238556 0.031072378158569336 -0.15135662257671356 0.8507497310638428 -0.28498199582099915 -0.4415995180606842
0.14090652763843536 -0.00945814698934555 -0.21578560769557953 0.614723801612854 -0.3998293876647949 -0.679890513420105
0.005321338772773743 -0.12690706551074982 -0.10689570009708405 0.03584187105298042 0.9657967686653137 0.25681114196777344
0.028438914567232132 -0.11616427451372147 -0.13933256268501282 -0.36291974782943726 0.9305034875869751 0.049523212015628815
-0.16523967683315277 -0.09884142875671387 0.008906100876629353 -0.2165076583623886 0.9759241342544556 -0.0263918936252594
-0.16254903376102448 -0.09511488676071167 -0.041394948959350586 -0.1440161019563675 -0.9712103605270386 0.18976253271102905
0.028747400268912315 -0.18679724633693695 0.08578778058290482 0.25382742285728455 0.7048383951187134 0.662400484085083
-0.1899690330028534 -0.10599987208843231 -0.0378156416118145 0.104245625436306 0.9844740629196167 -0.1412222683429718
-0.05961673706769943 -0.1109708845615387 -0.1723141223192215 0.027436736971139908 0.9616747498512268 0.2728165090084076
-0.03198740631341934 -0.11511516571044922 -0.20747947692871094 0.20094282925128937 -0.9795972108840942 0.0033716766629368067
-0.02318751811981201 -0.14866258203983307 0.0929533839225769 -0.4755175709724426 -0.7014467716217041 -0.5309005975723267
0.06497515738010406 -0.14278078079223633 0.23413316905498505 0.5893052220344543 -0.5514151453971863 0.5904749631881714
0.10173756629228592 -0.06517373025417328 -0.16586770117282867 -0.21224725246429443 0.9552823901176453 0.2058800309896469
0.1056830957531929 -0.1473865509033203 0.22460545599460602 -0.11785006523132324 0.7669987678527832 -0.630733072757721
-0.06171683967113495 -0.16656723618507385 0.14701475203037262 0.45403191447257996 0.7764485478401184 0.43701550364494324
0.009896568953990936 -0.21970435976982117 0.1715577244758606 -0.07961355149745941 -0.9628204703330994 0.2581441402435303
-0.17596547305583954 -0.11332898586988449 -0.19187112152576447 -0.06034601852297783 -0.8994811177253723 0.432772696018219
0.10947352647781372 -0.061578813940286636 -0.17672212421894073 -0.20843569934368134 0.9751464128494263 0.07512689381837845
-0.025119028985500336 -0.1930972784757614 0.12492112070322037 0.6463773846626282 0.6481022834777832 0.4026906490325928
0.22272425889968872 -0.10927754640579224 0.050767477601766586 0.36291974782943726 -0.9305034875869751 -0.049523212015628815
-0.20942798256874084 -0.10947106033563614 -0.11519522219896317 0.2402254194021225 0.9642709493637085 0.11168383806943893
-0.19759735465049744 -0.10211620479822159 -0.16668936610221863 -0.2571636736392975 0.9647697806358337 -0.0555531345307827
-0.09574724733829498 -0.09578509628772736 0.06635387241840363 0.6539442539215088 0.7522333264350891 -0.08063460141420364
-0.1926596611738205 -0.10972639918327332 0.01248540636152029 -0.2597801387310028 -0.9545119404792786 -0.14635971188545227
0.10438910126686096 -0.0615013912320137 -0.2154369056224823 0.44883477687835693 -0.587833046913147 -0.6730524897575378
0.05390188843011856 -0.18352240324020386 0.20859500765800476 -0.44380033016204834 0.6180758476257324 -0.6488633155822754
0.1700838804244995 -0.021362781524658203 -0.17267273366451263 0.7034115791320801 -0.4434260427951813 -0.5555047988891602
0.009264182299375534 -0.14930012822151184 -0.05163859948515892 0.16150911152362823 0.9868537783622742 -0.005866164807230234
0.048915330320596695 -0.1090795248746872 -0.12239273637533188 0.36291974782943726 -0.9305034875869751 -0.049523212015628815
-0.15004585683345795 -0.10621750354766846 -0.1355443000793457 0.5191388726234436 0.8443566560745239 0.13250160217285156
-0.008933085948228836 -0.13778482377529144 -0.006971154827624559 -0.36291974782943726 0.9305034875869751 0.049523212015628815
0.14321139454841614 -0.09976591914892197 -0.0007466208189725876 -0.2005615383386612 0.26731595396995544 0.9425058364868164
0.08945930004119873 -0.14347007870674133 0.03212539851665497 0.2634371519088745 -0.5576767325401306 -0.78714519739151
-0.11061768233776093 -0.1510447859764099 -0.10861366987228394 0.2046665996313095 0.9701520204544067 0.13006402552127838
0.09723516553640366 -0.1585770547389984 0.05744905769824982 -0.06651607155799866 0.8015418648719788 0.5942274928092957
0.17135894298553467 -0.02138219028711319 -0.16296391189098358 -0.6998263001441956 0.5007927417755127 0.5093622207641602
0.011761026456952095 -0.12330684810876846 -0.1273491233587265 -0.36291974782943726 0.9305034875869751 0.049523212015628815
-0.036237843334674835 -0.1299012303352356 0.0391911081969738 0.43756669759750366 0.898149311542511 -0.04316479712724686
-0.24263329803943634 -0.08363310992717743 -0.05523688718676567 0.2512821555137634 -0.9653102159500122 -0.07094723731279373
-0.04778708517551422 -0.13343806564807892 0.021009434014558792 0.23721235990524292 0.8545103669166565 -0.4621063768863678
-0.09960204362869263 -0.09572640061378479 0.037001896649599075 0.46026694774627686 0.8293413519859314 -0.3167762756347656
-0.008826781064271927 -0.16376003623008728 0.08747678995132446 0.41576582193374634 0.6653336882591248 0.6200563907623291
0.17887818813323975 -0.03664681315422058 -0.13655880093574524 0.6749228239059448 -0.7372360229492188 -0.03101951628923416
0.15287649631500244 -0.14113491773605347 0.13747946918010712 -0.5444841980934143 0.7672370076179504 -0.33894604444503784
0.06024058163166046 -0.15403342247009277 0.0164797343313694 -0.217838317155838 0.7860424518585205 0.5785185694694519
-0.22593484818935394 -0.09464094042778015 -0.12042295187711716 0.27293065190315247 0.9528599977493286 0.13253936171531677
-0.08184080570936203 -0.12925364077091217 0.008340989239513874 0.25265881419181824 0.8394351005554199 -0.48115718364715576
-0.031832970678806305 -0.1411343812942505 -0.11185214668512344 0.19141386449337006 0.9528265595436096 0.2355470061302185
0.02072368562221527 -0.14579077064990997 -0.03359825164079666 -0.2102963924407959 0.9756625890731812 -0.06211189925670624
-0.028174087405204773 -0.11517322808504105 -0.17844337224960327 -0.32298630475997925 0.9442275762557983 0.06414105743169785
0.11371158808469772 -0.19255223870277405 0.10666635632514954 -0.7410048246383667 0.6666882038116455 0.08024142682552338
-0.03983259201049805 -0.12242109328508377 -0.1276983618736267 0.30278921127319336 0.9058828949928284 0.2961333394050598
-0.13591158390045166 -0.10643273591995239 -0.027920443564653397 0.4386780560016632 0.8887915015220642 -0.1327073723077774
0.07426482439041138 -0.19518029689788818 0.1824774444103241 -0.5023312568664551 0.7259448766708374 -0.46975240111351013
0.2559095621109009 -0.011830925941467285 -0.0383232980966568 -0.1109401136636734 -0.9545354247093201 -0.2766847312450409
0.08342842757701874 -0.0985102653503418 -0.06805963069200516 -0.6678563356399536 0.7429083585739136 0.045332979410886765
0.06812556087970734 -0.10197550803422928 -0.11509393900632858 -0.6386269927024841 0.7385020852088928 0.21626432240009308
-0.0009254738688468933 -0.18245741724967957 0.10230321437120438 0.28247615694999695 0.6404871344566345 0.7141312956809998
-0.0586705282330513 -0.1221579909324646 0.044817354530096054 0.5635582208633423 0.8260546922683716 -0.0059859417378902435
0.07039891183376312 -0.15051868557929993 0.024883557111024857 -0.5230872631072998 0.5852609872817993 0.6195557117462158
0.06024058163166046 -0.15403342247009277 0.0164797343313694 -0.217838317155838 0.7860424518585205 0.5785185694694519
-0.08370590209960938 -0.1440291851758957 -0.04321427643299103 0.277736097574234 -0.960652232170105 -0.003152979537844658
-0.01928013563156128 -0.14502380788326263 0.05321776121854782 -0.170874685049057 -0.9442710280418396 -0.2813432216644287
0.22043240070343018 -0.04882068186998367 0.0023138104006648064 -0.5703340172767639 0.7853620052337646 0.2406775951385498
0.022378040477633476 -0.19035813212394714 0.10601785033941269 0.22822141647338867 0.6770820617675781 0.6996248960494995
0.02326807752251625 -0.17181754112243652 0.07968530803918839 0.34244218468666077 0.7805642485618591 0.5229271650314331
-0.17566953599452972 -0.10245011001825333 0.00027762632817029953 -0.10346296429634094 0.988163411617279 0.11326286941766739
0.05260495841503143 -0.11283399164676666 -0.0248105451464653 -0.8502411246299744 0.5205993056297302 0.07788730412721634
-0.15351992845535278 -0.0952523797750473 0.027356211096048355 -0.36291974782943726 0.9305034875869751 0.049523212015628815
0.14656443893909454 0.013117581605911255 -0.20411789417266846 0.6303229928016663 -0.3408711552619934 -0.6974954605102539
0.20187854766845703 -0.07855618745088577 0.030667703598737717 -0.366093248128891 0.3946495056152344 0.8427500128746033
0.185124471783638 -0.040454618632793427 -0.019238661974668503 0.027545157819986343 -0.9551409482955933 -0.29486793279647827
0.1730225682258606 -0.12272600829601288 0.25473475456237793 0.1699436455965042 0.9708061218261719 0.16927692294120789
0.03614477440714836 -0.11258333921432495 -0.15014483034610748 -0.47194698452949524 0.7422327399253845 0.4757694602012634
-0.11559441685676575 -0.24329768121242523 -0.3047744631767273 -0.03858940303325653 -0.6583738327026367 0.7517013549804688
-0.06089179217815399 -0.11095146834850311 -0.18202288448810577 0.2027885615825653 0.9613301157951355 0.18633641302585602
-0.03150848299264908 -0.19666939973831177 0.1452150195837021 0.6878840923309326 0.6819326281547546 0.2485627830028534
0.02075549215078354 -0.17177928984165192 0.06055351346731186 0.40876635909080505 0.763114869594574 0.5005655288696289
-0.24028907716274261 -0.09820429235696793 -0.15866199135780334 0.018092133104801178 -0.9668383002281189 0.2547479569911957
0.21649253368377686 -0.09770196676254272 0.10311194509267807 0.4069477915763855 -0.8831793665885925 0.23321197926998138
0.21272654831409454 -0.05240160971879959 0.01312608178704977 -0.3224695324897766 0.5537577867507935 0.7677016258239746
-0.15647052228450775 -0.10611967742443085 -0.1844642013311386 -0.19456616044044495 -0.8759143352508545 0.44149529933929443
0.18230657279491425 0.004866071045398712 -0.18153591454029083 -0.6574051380157471 0.41128307580947876 0.6313990950584412
-0.1539006531238556 -0.10615880787372589 -0.16489626467227936 0.43641239404678345 0.8969257473945618 -0.07119277119636536
0.148934006690979 -0.15988270938396454 0.06645888090133667 0.15213337540626526 -0.8123689293861389 -0.562949538230896
0.07171504199504852 -0.12814800441265106 0.00858625303953886 -0.5085127949714661 0.3962288498878479 0.7644720673561096
-0.03056679666042328 -0.14115366339683533 -0.10221099108457565 -0.2543553113937378 0.94432133436203 0.20871193706989288
0.10589389503002167 -0.16236679255962372 0.1921088993549347 0.4954054653644562 -0.6874502301216125 0.5310232639312744
0.16401006281375885 -0.15646882355213165 0.1127961203455925 -0.7583375573158264 0.6517530679702759 0.011919161304831505
0.050082240253686905 -0.15754815936088562 0.008075852878391743 0.08612794429063797 -0.8180626630783081 -0.5686435103416443
0.07192406058311462 -0.1020333543419838 -0.08617065101861954 -0.36291974782943726 0.9305034875869751 0.049523212015628815
0.15434476733207703 -0.03602004051208496 -0.012614555656909943 0.32369786500930786 -0.8350733518600464 -0.4448282718658447
0.08055725693702698 -0.14700394868850708 0.03328743949532509 -0.27578240633010864 0.6596088409423828 0.6991853713989258
-0.2065126746892929 -0.09493669122457504 0.02746497094631195 -0.2543807029724121 -0.964219868183136 0.07463588565587997
0.1192077100276947 -0.08796027302742004 -0.00408543786033988 -0.13135427236557007 0.6528098583221436 0.7460465431213379
0.00796252116560936 -0.12324900925159454 -0.15627241134643555 -0.2038421928882599 0.7224802374839783 0.6606593132019043
0.06443838775157928 -0.07945652306079865 -0.17084340751171112 -0.3546893894672394 0.921503484249115 0.1581985205411911
-0.23122538626194 -0.09834231436252594 -0.08964767307043076 -0.1708475649356842 -0.9742088913917542 0.1474047154188156
-0.20251692831516266 -0.09121561050415039 -0.013169470243155956 0.05270911753177643 0.9983428716659546 -0.023093998432159424
0.1863955855369568 -0.040473975241184235 -0.00955992192029953 0.15200728178024292 0.7757735848426819 0.6124288439750671
0.04322304204106331 -0.22053426504135132 0.11586766690015793 -0.04992106184363365 0.8783938884735107 0.4753232002258301
-0.1460805982351303 -0.10252480208873749 -0.17586879432201385 0.2709295153617859 0.9297353625297546 -0.24937787652015686
0.13383418321609497 -0.039431966841220856 -0.09881424158811569 -0.17607681453227997 0.9420585632324219 -0.28552180528640747
-0.003650713711977005 -0.1304687112569809 -0.1057245209813118 -0.2733738124370575 0.9584032297134399 0.08203680068254471
0.07846730947494507 -0.20654325187206268 0.11126701533794403 -0.013330943882465363 -0.8501206040382385 -0.5264192819595337
0.1931292861700058 -0.14233839511871338 0.06068979203701019 0.7227626442909241 -0.6719024181365967 -0.161744624376297
0.09270352125167847 -0.0499783456325531 -0.2020726501941681 0.4745776951313019 -0.8320700526237488 -0.28711578249931335
-0.06834334135055542 -0.1405504196882248 0.004003502428531647 0.32220178842544556 0.8483555316925049 -0.42009392380714417
-0.008933085948228836 -0.13778482377529144 -0.006971154827624559 -0.36291974782943726 0.9305034875869751 0.049523212015628815
0.08342842757701874 -0.0985102653503418 -0.06805963069200516 -0.6678563356399536 0.7429083585739136 0.045332979410886765
-0.12271785736083984 -0.2247275412082672 -0.3115100562572479 -0.09306196868419647 -0.6393633484840393 0.7632522583007812
0.025906579568982124 -0.11612571030855179 -0.15861475467681885 -0.26005247235298157 0.7264862060546875 0.6360743045806885
0.031316906213760376 -0.2127436250448227 0.19774474203586578 0.39132362604141235 -0.9140399098396301 0.10675650089979172
-0.15518559515476227 -0.10613924264907837 -0.17468026280403137 0.2395724207162857 0.9277433753013611 -0.2861770987510681
0.12102274596691132 -0.05804198980331421 -0.15854044258594513 -0.32514283061027527 0.9201458692550659 -0.21820586919784546
-0.09215089678764343 -0.13282088935375214 -0.00018837116658687592 0.24936293065547943 0.8569198846817017 -0.45111680030822754
-0.228635773062706 -0.09838174283504486 -0.06992928683757782 0.2569428086280823 -0.965999960899353 -0.02871359884738922
0.08621864020824432 -0.053603820502758026 -0.1814756691455841 -0.3050614297389984 0.8738593459129333 0.37855958938598633
0.036898888647556305 -0.22406986355781555 0.13595406711101532 0.05272538587450981 0.9877386689186096 0.14694344997406006
0.08118132501840591 -0.07228608429431915 -0.18287357687950134 -0.3492911159992218 0.9316638708114624 0.0999910980463028
0.2076984941959381 -0.09756805002689362 0.03615065664052963 -0.3528636395931244 0.5349012613296509 0.7677030563354492
-0.010090406984090805 -0.13406893610954285 -0.08527115732431412 0.06117045879364014 -0.9672487378120422 -0.24634943902492523
0.11640023440122604 -0.110409215092659 0.0027532093226909637 0.07431524991989136 0.5055682063102722 0.8595801591873169
-0.06961444020271301 -0.14053106307983398 -0.005675178952515125 0.3456650972366333 0.9276965856552124 -0.14104841649532318
0.13311654329299927 -0.013078175485134125 -0.20485524833202362 0.5659877061843872 -0.4080030918121338 -0.7163737416267395
-0.1313038319349289 -0.12121148407459259 -0.11085793375968933 0.7460785508155823 0.6657832264900208 -0.009968291968107224
3.894045948982239e-05 -0.13422317802906036 -0.008142330683767796 0.2960827052593231 0.9487362504005432 -0.1106099784374237
0.11980856955051422 -0.03921838849782944 -0.20561084151268005 0.44185054302215576 -0.4568035900592804 -0.7720742225646973
-0.007449224591255188 -0.13041087985038757 -0.13464786112308502 -0.36291974782943726 0.9305034875869751 0.049523212015628815
0.05339529365301132 -0.10898993909358978 0.303140252828598 -0.17072348296642303 -0.9065935611724854 0.3859296143054962
-0.033425718545913696 -0.1522049605846405 0.08448340743780136 0.5327025651931763 0.7755284309387207 0.3387971818447113
0.16674111783504486 -0.12263035774230957 0.20690524578094482 0.02755202166736126 0.9957872629165649 -0.08745644241571426
0.19805410504341125 -0.03322611004114151 -0.06030493602156639 -0.36291974782943726 0.9305034875869751 0.049523212015628815
0.11444863677024841 -0.06536728143692017 -0.069080650806427 -0.7381424307823181 0.6423645615577698 0.20618826150894165
0.021230455487966537 -0.216233491897583 0.18940035998821259 -0.24972723424434662 0.9662160873413086 -0.06373994797468185
0.1730225682258606 -0.12272600829601288 0.25473475456237793 0.1699436455965042 0.9708061218261719 0.16927692294120789
0.12884363532066345 -0.03563171625137329 -0.2067902535200119 0.45278212428092957 -0.5266059637069702 -0.7194960713386536
0.2216985672712326 -0.04883996397256851 0.011954906396567822 0.616754412651062 -0.6471422910690308 -0.4481304883956909
-0.08023690432310104 -0.11810535937547684 -0.18937289714813232 0.1654125452041626 0.9257327318191528 0.3400847315788269
-0.06314963102340698 -0.13691681623458862 -0.026208344846963882 0.19900520145893097 0.9782238602638245 0.05894959717988968
-0.039529986679553986 -0.1780278980731964 0.13055726885795593 0.573445737361908 0.6977251172065735 0.4293479025363922
-0.025631874799728394 -0.11521194130182266 -0.1590859591960907 -0.14087732136249542 0.809745192527771 0.5696195363998413
0.14893704652786255 -0.12969806790351868 0.20922932028770447 -0.40358102321624756 0.884042501449585 -0.23577789962291718
-0.1754477471113205 -0.09491847455501556 -0.13961084187030792 0.00313317752443254 0.9981385469436646 0.06090695783495903
0.11066397279500961 -0.046527594327926636 -0.13529054820537567 -0.5467813611030579 0.8008745908737183 -0.24419265985488892
-0.11956378817558289 -0.11391294002532959 -0.1619577705860138 -0.07335873693227768 0.9663644433021545 -0.24649189412593842
0.07852982729673386 -0.07595841586589813 -0.13330429792404175 -0.36291974782943726 0.9305034875869751 0.049523212015628815
-0.23263151943683624 -0.10210283100605011 -0.029294848442077637 -0.03229323774576187 -0.9994262456893921 0.01021620724350214
0.146507129073143 -0.14469580352306366 0.1577094942331314 -0.5972590446472168 0.8010611534118652 -0.03978273645043373
0.148934006690979 -0.15988270938396454 0.06645888090133667 0.15213337540626526 -0.8123689293861389 -0.562949538230896
-0.07204737514257431 -0.13678131997585297 -0.09395928680896759 0.12155766785144806 -0.9851272702217102 -0.1214413121342659
0.11222313344478607 -0.17754100263118744 0.12921729683876038 -0.684003472328186 0.7097758650779724 -0.16839687526226044
0.14775946736335754 -0.14471487700939178 0.1672452688217163 -0.36291974782943726 0.9305034875869751 0.049523212015628815
-0.03215954452753067 -0.15222424268722534 0.09412455558776855 0.4277573823928833 0.7260176539421082 0.5384441018104553
0.08041636645793915 -0.09826331585645676 0.29961299896240234 -0.09196879714727402 -0.9723920822143555 0.21446546912193298
0.11193902790546417 -0.04654701054096222 -0.1255817860364914 0.6518483757972717 -0.7467752695083618 -0.13198614120483398
0.22369475662708282 -0.02619117498397827 -0.004584215115755796 -0.451153039932251 0.8236163854598999 0.3436816930770874
0.05131850019097328 -0.13520510494709015 -0.008287549018859863 -0.6797428727149963 0.6148059964179993 0.39995408058166504
0.1728491634130478 -0.152959942817688 0.11164229363203049 -0.7599369287490845 0.6482874155044556 0.04710853472352028
-0.007449224591255188 -0.13041087985038757 -0.13464786112308502 -0.36291974782943726 0.9305034875869751 0.049523212015628815
0.17835398018360138 -0.1268913298845291 0.05655942112207413 -0.5851818919181824 0.6034133434295654 0.5417144298553467
-0.07198385894298553 -0.10716014355421066 0.059841156005859375 0.6494593620300293 0.7587798833847046 -0.049554243683815
-0.21039710938930511 -0.09487754106521606 -0.0021126382052898407 0.0326550267636776 -0.9979373812675476 -0.05526953190565109
-0.1573895364999771 -0.09519346058368683 -0.002108578570187092 0.09600450843572617 0.9780783653259277 -0.18478593230247498
0.21087443828582764 -0.029708638787269592 -0.03244457393884659 0.189429372549057 -0.8697032928466797 -0.45577701926231384
0.12238965928554535 -0.15530221164226532 0.18025633692741394 0.5190073847770691 -0.7940536141395569 0.31640201807022095
0.14148452877998352 -0.03954846411943436 -0.040561553090810776 -0.3773461878299713 0.9205405116081238 0.10106964409351349
0.11023568361997604 -0.09152191877365112 -0.002914262469857931 -0.13394537568092346 0.7508962154388428 0.6466942429542542
-0.14351072907447815 -0.10256393253803253 -0.15630081295967102 0.38425493240356445 0.9213170409202576 -0.05935489386320114
-0.01917129009962082 -0.14132718741893768 -0.015441132709383965 -0.36291974782943726 0.9305034875869751 0.049523212015628815
-0.006400749087333679 -0.13782338798046112 0.012311034835875034 -0.004341841209679842 0.9971897602081299 0.07479146867990494
0.029769152402877808 -0.13856081664562225 -0.10315591841936111 0.011960397474467754 0.8599162101745605 0.5102950930595398
0.21769949793815613 -0.007190898060798645 -0.09001125395298004 0.37811046838760376 -0.7744714021682739 -0.507175087928772
-0.017687417566776276 -0.1339532434940338 -0.1431177854537964 0.11109886318445206 0.856905996799469 0.5033578872680664
-0.18211890757083893 -0.10235190391540527 -0.04883032292127609 -0.12305440753698349 0.9756056666374207 -0.1817999631166458
0.17334461212158203 -0.1268150508403778 0.018416162580251694 -0.30848923325538635 0.911106526851654 0.2733483612537384
-0.004916887730360031 -0.13044944405555725 -0.11536567658185959 -0.3771899342536926 0.9156632423400879 0.13888375461101532
0.18915635347366333 -0.03309061378240585 -0.1280558705329895 -0.6350356936454773 0.7206975817680359 0.27807319164276123
0.20960332453250885 -0.02968928962945938 -0.042123258113861084 0.36291974782943726 -0.9305034875869751 -0.049523212015628815
0.18336334824562073 -0.12696760892868042 0.09470267593860626 -0.548293948173523 0.8224846124649048 -0.15130382776260376
0.1728491634130478 -0.152959942817688 0.11164229363203049 -0.7599369287490845 0.6482874155044556 0.04710853472352028
0.07836375385522842 -0.09843314439058304 -0.10662401467561722 -0.6709212064743042 0.6620430946350098 0.3340115547180176
0.03887379914522171 -0.18329355120658875 0.09416523575782776 0.31105175614356995 0.7670392394065857 0.5611574053764343
0.20059631764888763 -0.033264823257923126 -0.04094751551747322 0.36291974782943726 -0.9305034875869751 -0.049523212015628815
0.06801670789718628 -0.10567212104797363 -0.04643509164452553 -0.576225757598877 0.8142592906951904 -0.07032553851604462
0.11731996387243271 -0.1739751547574997 0.09956881403923035 -0.5260973572731018 0.8383925557136536 0.14254675805568695
-0.20931710302829742 -0.10570524632930756 -0.1851394772529602 0.06807297468185425 -0.969109833240509 0.2370489239692688
-0.17802749574184418 -0.09487919509410858 -0.15925399959087372 -0.03968297317624092 0.9856216311454773 -0.16424155235290527
0.062407754361629486 -0.12407808005809784 0.258294939994812 0.22477708756923676 -0.7620632648468018 0.6072354316711426
-0.06939590722322464 -0.13310900330543518 -0.143528550863266 -0.0836315006017685 0.9458779096603394 0.3135615289211273
-0.04491700977087021 -0.12234366685152054 -0.16641314327716827 0.03398745507001877 0.9833271503448486 0.1786411702632904
-0.01030810922384262 -0.14146216213703156 0.05204658955335617 0.0637906938791275 0.9502174854278564 0.3049876093864441
0.14403465390205383 -0.039587296545505524 -0.021143972873687744 -0.5050272941589355 0.7036144733428955 0.4998741149902344
0.1413901001214981 -0.14827577769756317 0.18747535347938538 -0.4066734313964844 0.8137658834457397 -0.4152129590511322
0.060515791177749634 -0.08310949057340622 -0.13095280528068542 0.6941426992416382 -0.6272253394126892 -0.3532058596611023
-0.04861973226070404 -0.15197359025478363 -0.0312097929418087 0.29675981402397156 0.9549477100372314 0.002906591398641467
0.15214838087558746 -0.09621818363666534 -0.0019132234156131744 -0.3240716755390167 0.1971932202577591 0.9252526164054871
0.17633597552776337 -0.03660810738801956 -0.155916228890419 -0.6125757694244385 0.7158088088035583 0.3352144956588745
0.18690504133701324 -0.13433732092380524 0.25912830233573914 0.2925402820110321 0.9397016763687134 0.17714673280715942
-0.20381174981594086 -0.09119588881731033 -0.023028692230582237 0.1451679766178131 0.9819456934928894 -0.1212802529335022
0.07836375385522842 -0.09843314439058304 -0.10662401467561722 -0.6709212064743042 0.6620430946350098 0.3340115547180176
-0.02386273443698883 -0.19311639666557312 0.1344870626926422 0.6788065433502197 0.6644065976142883 0.3127068877220154
0.008838234469294548 -0.08221939951181412 -0.21087564527988434 0.4276388883590698 -0.7821353077888489 -0.45319899916648865
-0.09215089678764343 -0.13282088935375214 -0.00018837116658687592 0.24936293065547943 0.8569198846817017 -0.45111680030822754
-0.03972332924604416 -0.11871006339788437 -0.1966249942779541 -0.04169413074851036 -0.9892001748085022 -0.14051561057567596
-0.03056679666042328 -0.14115366339683533 -0.10221099108457565 -0.2543553113937378 0.94432133436203 0.20871193706989288
-0.033207982778549194 -0.1448117196559906 -0.05283433943986893 -0.36291974782943726 0.9305034875869751 0.049523212015628815
0.14380386471748352 -0.13328933715820312 0.2390889972448349 0.006581712979823351 0.9954184293746948 0.09538739174604416
0.07598760724067688 -0.07591970264911652 -0.15266172587871552 -0.36291974782943726 0.9305034875869751 0.049523212015628815
-0.13523994386196136 -0.0879957377910614 0.024970009922981262 -0.4619724750518799 0.7870189547538757 -0.408879816532135
-0.20899099111557007 -0.0911170244216919 -0.06246546655893326 0.25853464007377625 0.9656804203987122 0.024922793731093407
0.15902045369148254 -0.15639284253120422 0.07480326294898987 -0.5460430383682251 0.8122256398200989 -0.20524737238883972
0.037661176174879074 -0.2091967612504959 0.17759451270103455 -0.36291974782943726 0.9305034875869751 0.049523212015628815
0.14931491017341614 -0.04733472317457199 -0.15238900482654572 -0.36291974782943726 0.9305034875869751 0.049523212015628815
0.11667537689208984 -0.08792171627283096 -0.02336762845516205 -0.3680781126022339 0.682580828666687 0.6313493251800537
0.17722350358963013 -0.10811225324869156 0.010939064435660839 -0.4424542784690857 0.21511298418045044 0.8706094026565552
-0.208138108253479 -0.10949070006608963 -0.10537364333868027 -0.12696249783039093 -0.9764225482940674 0.1745837926864624
0.053949374705553055 -0.13156132400035858 -0.05747164413332939 -0.6800398826599121 0.6915475726127625 0.24353204667568207
0.1667599380016327 -0.13768842816352844 0.1744644045829773 0.38879990577697754 -0.9070200324058533 0.16170750558376312
0.12102274596691132 -0.05804198980331421 -0.15854044258594513 -0.32514283061027527 0.9201458692550659 -0.21820586919784546
0.2049761563539505 -0.11632305383682251 0.05308425426483154 -0.4208395481109619 0.8875782489776611 0.18734702467918396
0.016939999535679817 -0.14573314785957336 -0.06240871921181679 -0.36291974782943726 0.9305034875869751 0.049523212015628815
0.06457553058862686 -0.21359556913375854 0.14197169244289398 -0.3933352530002594 0.9193414449691772 -0.00993356667459011
-0.2299305945634842 -0.0983620285987854 -0.07978851348161697 -0.2011520117521286 -0.9660922884941101 0.16187523305416107
0.056038133800029755 -0.14632852375507355 0.23529978096485138 0.5866698026657104 -0.5307667255401611 0.6116414070129395
0.09135018289089203 -0.07244093716144562 -0.10544394701719284 -0.5742362141609192 0.7920361757278442 0.2071990966796875
0.05915353447198868 -0.10553716123104095 -0.11392275989055634 0.36291974782943726 -0.9305034875869751 -0.049523212015628815
-0.22722963988780975 -0.0946212187409401 -0.13028211891651154 -0.18035884201526642 -0.9822197556495667 -0.0521070621907711
0.16603946685791016 -0.02874966710805893 -0.06351727247238159 0.0331469401717186 0.9756941795349121 -0.21661506593227386
0.12737828493118286 -0.05813877284526825 -0.11014692485332489 -0.5091480612754822 0.8511285781860352 -0.12786121666431427
0.26666760444641113 -0.027335084974765778 -0.06255988031625748 -0.027453972026705742 -0.9833799600601196 -0.17947176098823547
-0.1926596611738205 -0.10972639918327332 0.01248540636152029 -0.2597801387310028 -0.9545119404792786 -0.14635971188545227
0.18336334824562073 -0.12696760892868042 0.09470267593860626 -0.548293948173523 0.8224846124649048 -0.15130382776260376
0.1642552614212036 -0.1376502811908722 0.15539270639419556 -0.36291974782943726 0.9305034875869751 0.049523212015628815
-0.17297890782356262 -0.09872357547283173 -0.05002342537045479 0.04509151354432106 -0.9889928102493286 0.14092524349689484
0.07013823091983795 -0.10181950777769089 0.2911100685596466 0.13474953174591064 0.9669943451881409 -0.21625089645385742
0.11344407498836517 -0.12509958446025848 0.2571106553077698 -0.2167150229215622 -0.9459624886512756 0.241225004196167
0.14893704652786255 -0.12969806790351868 0.20922932028770447 -0.40358102321624756 0.884042501449585 -0.23577789962291718
-0.025393277406692505 -0.13753417134284973 -0.13230551779270172 0.32628071308135986 0.8894232511520386 0.32010501623153687
0.03996742516756058 -0.1350322663784027 -0.09471908211708069 0.6358693242073059 -0.7474339604377747 -0.19238686561584473
0.005103610455989838 -0.13430029153823853 0.03042205050587654 0.2789596617221832 0.952805757522583 0.11976106464862823
0.1608642041683197 -0.04379788041114807 -0.1342073231935501 -0.36291974782943726 0.9305034875869751 0.049523212015628815
-0.05401095002889633 -0.16298630833625793 0.13620246946811676 0.42094501852989197 0.7528181672096252 0.5060337781906128
-0.04491700977087021 -0.12234366685152054 -0.16641314327716827 0.03398745507001877 0.9833271503448486 0.1786411702632904
0.11351560801267624 -0.15882496535778046 0.18141472339630127 0.5150190591812134 -0.6980351209640503 0.4974960684776306
0.090850330889225 -0.1210716962814331 0.015856485813856125 -0.12483274936676025 0.5473952889442444 0.8275114297866821
-0.19136978685855865 -0.1097460463643074 0.022306982427835464 -0.19381585717201233 -0.980983316898346 -0.010348289273679256
0.23555298149585724 -0.09065333753824234 0.11035377532243729 0.1047932580113411 -0.9943531155586243 0.016741471365094185
0.035966865718364716 -0.1423390507698059 0.013252689503133297 0.11426077038049698 0.9589862823486328 0.2594028115272522
-0.025502130389213562 -0.14123079180717468 -0.06364660710096359 -0.2109002023935318 0.9748811721801758 0.07160910218954086
-0.025631874799728394 -0.11521194130182266 -0.1590859591960907 -0.14087732136249542 0.809745192527771 0.5696195363998413
-0.03185419738292694 -0.17446094751358032 0.11978714913129807 0.607889711856842 0.6272352337837219 0.48687365651130676
-0.15133078396320343 -0.10619793832302094 -0.14532828330993652 0.4472586214542389 0.8937405347824097 -0.03446066379547119
0.14321139454841614 -0.09976591914892197 -0.0007466208189725876 -0.2005615383386612 0.26731595396995544 0.9425058364868164
0.04753480851650238 -0.13514749705791473 -0.037098079919815063 -0.6415247917175293 0.7666909694671631 -0.025118447840213776
-0.2054474949836731 -0.10576417297124863 -0.15567469596862793 -0.2734691798686981 0.9603539109230042 -0.05417577177286148
0.05783409997820854 -0.2022170126438141 0.19428327679634094 0.46425068378448486 -0.7505856156349182 0.47020480036735535
-0.026659443974494934 -0.1375148892402649 -0.14194659888744354 -0.3435901701450348 -0.8594945073127747 -0.3784376084804535
0.13715176284313202 -0.08083698153495789 -0.006427789572626352 -0.5341424345970154 0.20847593247890472 0.819286048412323
-0.047205813229084015 -0.1815948635339737 0.1413273811340332 0.5969018340110779 0.7223204970359802 0.34922951459884644
0.02072368562221527 -0.14579077064990997 -0.03359825164079666 -0.2102963924407959 0.9756625890731812 -0.06211189925670624
0.10712625831365585 -0.18110685050487518 0.15886570513248444 -0.4702802300453186 0.8812076449394226 -0.04805861786007881
-0.24040038883686066 -0.10198453068733215 -0.08845000714063644 -0.25366172194480896 -0.9618349075317383 0.10261218994855881
0.23927593231201172 -0.015290327370166779 -0.09521976113319397 0.08589593321084976 -0.871343195438385 -0.48309722542762756
0.0040551647543907166 -0.12688778340816498 -0.11653685569763184 -0.25613933801651 0.9453381896018982 0.2018127590417862
0.15810120105743408 -0.13389870524406433 0.03980456292629242 -0.3706296682357788 0.9068527817726135 0.20062851905822754
0.14882677793502808 -0.1635245382785797 0.13410021364688873 -0.6888313293457031 0.6686573028564453 -0.2800157368183136
0.001389194279909134 -0.10448531806468964 -0.162613183259964 0.1944296807050705 -0.7159543037414551 -0.6705271005630493
-0.24946404993534088 -0.10184650868177414 -0.15746432542800903 0.018092133104801178 -0.9668383002281189 0.2547479569911957
0.09527277946472168 -0.06878796964883804 -0.14533452689647675 -0.36291974782943726 0.9305034875869751 0.049523212015628815
0.19868844747543335 -0.10476970672607422 0.10543602705001831 -0.7331706881523132 0.6740383505821228 -0.09018353372812271
-0.01388891413807869 -0.13401108980178833 -0.11419449746608734 -0.36291974782943726 0.9305034875869751 0.049523212015628815
-0.08840371668338776 -0.09943278133869171 -0.20567920804023743 0.11823803931474686 0.9438546299934387 0.3084772825241089
0.1700838804244995 -0.021362781524658203 -0.17267273366451263 0.7034115791320801 -0.4434260427951813 -0.5555047988891602
0.10671274363994598 -0.06896217167377472 -0.058226171880960464 -0.7531612515449524 0.6442428827285767 0.133038729429245
0.1803939938545227 -0.01779552549123764 -0.16414332389831543 -0.7390984892845154 0.47733965516090393 0.4752686619758606
0.1518571376800537 -0.04737343639135361 -0.13303157687187195 -0.2563389241695404 0.9664092659950256 -0.018533950671553612
0.07426482439041138 -0.19518029689788818 0.1824774444103241 -0.5023312568664551 0.7259448766708374 -0.46975240111351013
0.2274284064769745 -0.06789371371269226 0.01756437122821808 -0.4585568904876709 0.6158187985420227 0.640697181224823
-0.09619374573230743 -0.10305282473564148 -0.19474883377552032 -0.019890442490577698 -0.9726170897483826 -0.23156073689460754
0.16175058484077454 -0.13761214911937714 0.1363210827112198 -0.5490974187850952 0.752269446849823 -0.36411920189857483
0.06410935521125793 -0.10931089520454407 -0.006699474062770605 -0.6530797481536865 0.6207579970359802 0.4337584376335144
0.11373092979192734 -0.15151247382164001 0.045596495270729065 -0.35104385018348694 0.8722313642501831 0.34055930376052856
-0.23263151943683624 -0.10210283100605011 -0.029294848442077637 -0.03229323774576187 -0.9994262456893921 0.01021620724350214
0.14527949690818787 0.013137146830558777 -0.21390189230442047 0.6091530323028564 -0.3399443030357361 -0.7164987325668335
0.12355697900056839 -0.17407011985778809 0.1470598727464676 -0.36291974782943726 0.9305034875869751 0.049523212015628815
0.029769152402877808 -0.13856081664562225 -0.10315591841936111 0.011960397474467754 0.8599162101745605 0.5102950930595398
-0.15867941081523895 -0.09517382085323334 -0.011930156499147415 0.25468364357948303 0.9599451422691345 0.11679726094007492
0.07736800611019135 -0.07222802191972733 -0.21190966665744781 0.18636398017406464 -0.8427939414978027 -0.5049424767494202
0.021984916180372238 -0.14580997824668884 -0.023994741961359978 -0.10184292495250702 0.991338849067688 -0.08291764557361603
0.14009495079517365 -0.163391575217247 0.06761270016431808 -0.2355952262878418 0.7777082324028015 0.582807719707489
0.1577310860157013 -0.12983198463916779 0.27619054913520813 -0.07231003046035767 -0.9841094017028809 0.16217263042926788
0.1644705832004547 -0.13033778965473175 0.019574545323848724 -0.26578041911125183 0.9007146954536438 0.343618780374527
-0.19992731511592865 -0.09125503897666931 0.00654891412705183 0.3246733248233795 0.9303439855575562 0.1704326570034027
0.11667537689208984 -0.08792171627283096 -0.02336762845516205 -0.3680781126022339 0.682580828666687 0.6313493251800537
-0.19604288041591644 -0.09131418913602829 0.03612646460533142 -0.2173067033290863 -0.963982880115509 0.15334534645080566
-0.024251483380794525 -0.11152026057243347 -0.218333899974823 0.3554655909538269 -0.9170188903808594 -0.18088850378990173
-0.05621673911809921 -0.1518578976392746 -0.08905636519193649 -0.2903871238231659 -0.956696093082428 -0.020199639722704887
0.148934006690979 -0.15988270938396454 0.06645888090133667 0.15213337540626526 -0.8123689293861389 -0.562949538230896
0.26666760444641113 -0.027335084974765778 -0.06255988031625748 -0.027453972026705742 -0.9833799600601196 -0.17947176098823547
0.14818866550922394 -0.02847784012556076 -0.19944028556346893 -0.6099042892456055 0.441027969121933 0.6584156155586243
-0.058065205812454224 -0.13699424266815186 0.012506437487900257 0.356245756149292 0.8265878558158875 -0.4357079565525055
0.12510967254638672 -0.14802786707878113 0.0635097399353981 -0.24972772598266602 0.6830048561096191 0.6863966584205627
0.13888540863990784 -0.14823763072490692 0.16840365529060364 -0.5725917816162109 0.8010076880455017 -0.17471513152122498
-0.01917129009962082 -0.14132718741893768 -0.015441132709383965 -0.36291974782943726 0.9305034875869751 0.049523212015628815
-0.025631874799728394 -0.11521194130182266 -0.1590859591960907 -0.14087732136249542 0.809745192527771 0.5696195363998413
0.18777593970298767 -0.03678230941295624 -0.06880786269903183 -0.05578043684363365 0.9963679909706116 -0.06433825194835663
