ply
format ascii 1.0
element vertex 397
property float x
property float y
property float z
property float nx
property float ny
property float nz
end_header
-0.011476562358438969 0.19498437643051147 -0.0426015630364418 0.21613071858882904 -0.7551801204681396 -0.6188622713088989
0.09617968648672104 0.2109414041042328 -0.11437500268220901 -0.5349822640419006 -0.8288546204566956 -0.163688525557518
-0.23874999582767487 0.03252343833446503 -0.0426015630364418 0.7403270602226257 -0.5843715071678162 0.3323037624359131
0.2381249964237213 -0.04860156401991844 0.06505468487739563 0.9963855743408203 -0.040799569338560104 -0.07450611144304276
-0.059324219822883606 -0.18579687178134918 -0.2938007712364197 -0.0664740726351738 0.9064460396766663 -0.4170573055744171
-0.15501561760902405 -0.1251835972070694 -0.13829687237739563 0.2005966305732727 -0.9794026017189026 0.023054366931319237
-0.08554687350988388 -0.02467968687415123 0.18466797471046448 0.6047766208648682 -0.5215862989425659 -0.6018247008323669
-0.15753906965255737 0.1308242231607437 -0.030644530430436134 0.6914740800857544 -0.4489355981349945 -0.5659686326980591
0.13206639885902405 -0.1921406239271164 0.12409765273332596 0.636817991733551 -0.7229774594306946 0.26789259910583496
-0.11366406083106995 0.011210937052965164 0.08897656202316284 0.3172582685947418 -0.2643602192401886 -0.9107474088668823
-0.2676093876361847 -0.012710937298834324 -0.13829687237739563 0.9971264600753784 -0.0022615406196564436 0.07572098821401596
0.08421874791383743 0.1547500044107437 -0.28200000524520874 -0.4697314202785492 -0.5157278776168823 0.7165034413337708
0.2242460995912552 0.11886328458786011 -0.06652344018220901 -0.5016262531280518 -0.8649544715881348 0.014996519312262535
0.04940234497189522 0.09494531154632568 0.053089842200279236 -0.1854977309703827 -0.7038688659667969 -0.6856815814971924
-0.2595156133174896 0.047093749046325684 -0.15025781095027924 0.948326826095581 -0.31701305508613586 0.013378571718931198
0.17991405725479126 0.1547500044107437 -0.08391406387090683 -0.43752026557922363 -0.7246397137641907 -0.5324220657348633
0.08421874791383743 -0.05701953172683716 0.3042929768562317 0.2832901179790497 0.5073916912078857 0.8138183951377869
-0.20466016232967377 0.1308242231607437 -0.17417968809604645 -0.726560115814209 0.6839983463287354 0.06524288654327393
0.10814452916383743 -0.03188281133770943 -0.17417968809604645 0.5821808576583862 -0.7815257906913757 -0.22423845529556274
-0.059324219822883606 0.1437070369720459 0.017207032069563866 0.014157664962112904 -0.7968713045120239 -0.6039831638336182
-0.035398438572883606 -0.11308984458446503 0.19663281738758087 -0.4996446669101715 -0.34564122557640076 0.7942841649055481
-0.07128515839576721 0.20634765923023224 -0.21007031202316284 0.2715637683868408 -0.9017616510391235 0.3362721800804138
-0.26267188787460327 -0.016359375789761543 -0.09044922143220901 0.9410786628723145 -0.12928567826747894 -0.31249991059303284
0.23933984339237213 -0.07252734154462814 0.06505468487739563 0.9348146915435791 -0.1804775446653366 -0.3058582842350006
0.024410156533122063 -0.04037890583276749 0.2564453184604645 0.4227823317050934 -0.8371944427490234 -0.34693023562431335
-0.17894139885902405 0.023167969658970833 -0.2644999921321869 0.5375510454177856 0.23972317576408386 0.8084377646446228
-0.1478554755449295 -0.012710937298834324 -0.26987889409065247 0.8240751624107361 0.09364085644483566 0.5586872696876526
-0.23841406404972076 -0.012710937298834324 -0.19810546934604645 0.7439095377922058 0.2289230078458786 0.6278477907180786
-0.07128515839576721 0.10690625011920929 -0.3006015717983246 -0.22360371053218842 0.2822091579437256 -0.9329305291175842
-0.17894139885902405 0.06911718845367432 0.041132811456918716 0.19340544939041138 -0.7237849831581116 -0.6623666882514954
-0.11913280934095383 -0.10841015726327896 -0.16016796231269836 0.20501701533794403 -0.9562138319015503 -0.20886141061782837
-0.07128515839576721 -0.1921406239271164 -0.30549609661102295 -0.10934609919786453 0.9134244918823242 -0.3920447826385498
-0.0234375 0.22652344405651093 -0.19449609518051147 0.23940086364746094 -0.9378888607025146 0.25110098719596863
-0.10717187821865082 -0.11440234631299973 -0.13829687237739563 -0.14135311543941498 -0.9550982117652893 -0.26039713621139526
-0.08324609696865082 0.14278516173362732 -0.2888828217983246 0.3197959363460541 -0.5638147592544556 0.7614745497703552
0.13206639885902405 -0.09644531458616257 0.2888203263282776 0.36719176173210144 0.04826958477497101 0.9288919568061829
-0.09520702809095383 0.13468359410762787 0.017207032069563866 -0.3482964336872101 0.6506963968276978 0.6747472286224365
0.06029687449336052 -0.09202343970537186 -0.24595312774181366 0.06477683037519455 -0.7738629579544067 0.6300318241119385
-0.13109375536441803 0.19398827850818634 -0.16222265362739563 0.4909844696521759 -0.8614861369132996 0.12952154874801636
-0.248046875 -0.06055859476327896 -0.0545664057135582 0.972704291343689 0.23035158216953278 -0.028010094538331032
0.03637109324336052 -0.04355078190565109 0.2923281192779541 0.3210790753364563 -0.7587993741035461 -0.566684901714325
-0.09520702809095383 -0.07252734154462814 0.07731640338897705 0.7373522520065308 0.5288658142089844 -0.42025303840637207
0.15980078279972076 0.09494531154632568 -0.22202734649181366 0.8233515620231628 0.007991290651261806 -0.567475438117981
0.07226952910423279 0.1547500044107437 0.005242187529802322 0.21291112899780273 0.6291621923446655 0.7475451231002808
-0.09520702809095383 -0.2008046805858612 -0.3058398365974426 -0.20658813416957855 0.7966063618659973 -0.5681018233299255
0.21580077707767487 -0.07252734154462814 0.13847656548023224 0.665630578994751 -0.18847225606441498 0.7220901250839233
0.00048828125 0.047093749046325684 0.12717577815055847 0.28696367144584656 -0.9110233187675476 -0.29612216353416443
0.012449218891561031 -0.08112890273332596 -0.21007031202316284 0.2433398962020874 -0.9677281975746155 -0.06548132002353668
-0.035398438572883606 -0.1574414074420929 0.17270703613758087 -0.5797193646430969 -0.4543001353740692 0.6764147281646729
0.048332031816244125 0.050511717796325684 0.14878515899181366 0.01728854514658451 -0.9429156184196472 -0.3325826823711395
0.14402733743190765 -0.13233202695846558 0.27611327171325684 0.17808403074741364 -0.4951077401638031 0.8503848910331726
0.06029687449336052 0.1308242231607437 -0.30323827266693115 -0.2716764509677887 -0.3762196898460388 0.885805070400238
0.1601874977350235 0.1667148470878601 -0.21007031202316284 0.8045422434806824 0.40316689014434814 -0.4360828101634979
0.11154687404632568 0.10690625011920929 -0.2818359434604645 0.7547282576560974 0.257571816444397 -0.6033589243888855
0.17991405725479126 0.0389414057135582 -0.26987889409065247 -0.4848545789718628 -0.8277081847190857 0.28251582384109497
0.10814452916383743 -0.1682148426771164 0.03233984485268593 -0.1674046665430069 0.5690557956695557 0.805078387260437
0.16795311868190765 -0.017546875402331352 -0.21007031202316284 0.4653933346271515 -0.7271707653999329 0.5046104788780212
-0.25049999356269836 -0.02467968687415123 -0.0426015630364418 0.9997012615203857 -0.023013979196548462 0.00823367852717638
0.15598827600479126 -0.10841015726327896 0.2805234491825104 -0.37595322728157043 0.1176314502954483 -0.9191420078277588
0.048332031816244125 0.07342968881130219 0.07701171934604645 -0.21248303353786469 -0.7642114162445068 -0.6089596152305603
0.13206639885902405 -0.07252734154462814 -0.23118749260902405 0.11929472535848618 -0.4815559387207031 0.8682584166526794
0.18006640672683716 0.03512890636920929 -0.2818359434604645 -0.4125770032405853 -0.7619919180870056 0.49914780259132385
-0.1742851585149765 -0.14429686963558197 -0.2818359434604645 0.9040864706039429 0.09170356392860413 -0.4173944890499115
-0.0234375 0.16944140195846558 -0.018675781786441803 0.11953543871641159 -0.7466340065002441 -0.6544073224067688
0.23972265422344208 0.0829765647649765 0.001695312443189323 0.5800177454948425 0.5092203617095947 0.6358254551887512
0.15009765326976776 0.10690625011920929 -0.23399609327316284 0.7648286819458008 -0.03964598849415779 -0.6430127024650574
-0.08324609696865082 -0.08448828011751175 0.18837890028953552 -0.5222551226615906 -0.34560126066207886 0.7796213030815125
-0.21482811868190765 -0.02269921824336052 0.041132811456918716 -0.41687512397766113 -0.1697932481765747 0.8929643630981445
-0.059324219822883606 -0.13233202695846558 0.16932031512260437 -0.5681899785995483 -0.49258291721343994 0.6591829657554626
0.20038671791553497 0.011210937052965164 -0.16222265362739563 0.8514955639839172 -0.2522066831588745 -0.4597250521183014
0.012449218891561031 -0.09632812440395355 0.2564453184604645 0.8832036852836609 0.3709205985069275 -0.28700026869773865
-0.14305469393730164 -0.000750000006519258 -0.27785155177116394 0.7615493535995483 0.08180057257413864 0.6429240107536316
-0.011476562358438969 -0.07252734154462814 0.22080078721046448 -0.6343972682952881 -0.13832470774650574 0.7605302929878235
-0.24687500298023224 0.03512890636920929 -0.030644530430436134 0.7841343283653259 -0.48685285449028015 0.3848475515842438
-0.09450781345367432 -0.15625780820846558 -0.25791797041893005 -0.04282369837164879 -0.6191878318786621 0.7840743660926819
-0.11913280934095383 0.1308242231607437 0.004804687574505806 0.4958488643169403 -0.5628546476364136 -0.661308228969574
-0.22678905725479126 0.08610937744379044 -0.21007031202316284 0.7872925400733948 -0.4054231345653534 0.4645455479621887
-0.04735937342047691 -0.14347265660762787 -0.018675781786441803 -0.2021089494228363 -0.9508432745933533 0.2346252053976059
-0.20286327600479126 0.03512890636920929 0.05262500047683716 -0.4517267048358917 0.15729458630084991 0.878180742263794
0.23548828065395355 -0.02467968687415123 0.053089842200279236 0.9910731315612793 -0.03680772706866264 0.1281375288963318
0.024410156533122063 0.23848046362400055 -0.1389804631471634 -0.0632251426577568 0.9941345453262329 0.08774448931217194
-0.14305469393730164 -0.2041054666042328 -0.3054257929325104 0.13731880486011505 0.9443303942680359 -0.2989710867404938
-0.035398438572883606 -0.18389452993869781 -0.2938007712364197 -0.3957987427711487 0.8397122025489807 -0.3717886805534363
0.06029687449336052 0.059058595448732376 0.10333593934774399 -0.1895516812801361 -0.9442009925842285 -0.2693595886230469
-0.14305469393730164 -0.12562109529972076 -0.0784921869635582 -0.05000091716647148 -0.9620745778083801 -0.2681649327278137
0.04314062371850014 -0.10841015726327896 -0.16222265362739563 0.420210063457489 -0.6791694164276123 -0.6017909646034241
-0.14305469393730164 -0.1801796853542328 -0.27281641960144043 -0.19500789046287537 -0.5527618527412415 0.8102013468742371
0.048332031816244125 0.047093749046325684 0.15778906643390656 0.03335953876376152 -0.9208371639251709 -0.3885177969932556
0.024410156533122063 -0.10598437488079071 -0.17417968809604645 -0.28566429018974304 0.7260708212852478 0.6254734992980957
0.0032617186661809683 -0.15625780820846558 0.029167968779802322 -0.3665989637374878 -0.7796410322189331 -0.5077056884765625
-0.07615234702825546 -0.10841015726327896 0.08897656202316284 0.8500241637229919 0.4804616868495941 0.2159062772989273
-0.14305469393730164 -0.1274687498807907 -0.006718750111758709 0.001148895942606032 -0.9033767580986023 0.4288462698459625
-0.15501561760902405 -0.07252734154462814 -0.2842382788658142 0.8422179818153381 -0.2805672585964203 0.4603812098503113
0.21298828721046448 -0.012710937298834324 -0.09044922143220901 0.6489391922950745 -0.748619019985199 -0.13582146167755127
0.09617968648672104 0.19063280522823334 -0.241761714220047 -0.3465639054775238 -0.6656757593154907 0.660885214805603
-0.04735937342047691 -0.06055859476327896 0.2058710902929306 -0.2952568233013153 -0.0796133503317833 0.952095091342926
0.21580077707767487 -0.04541406407952309 0.005242187529802322 0.31571823358535767 -0.8778679966926575 -0.36009693145751953
-0.04735937342047691 -0.13233202695846558 -0.1425429731607437 -0.17976009845733643 -0.8701590895652771 -0.4588130712509155
-0.07128515839576721 0.011210937052965164 0.11571484059095383 0.6711395382881165 -0.6864086985588074 -0.28002646565437317
0.10139062255620956 -0.06055859476327896 -0.22202734649181366 0.13215383887290955 -0.6845263242721558 0.7169093489646912
-0.22945313155651093 -0.04860156401991844 -0.19810546934604645 0.7143750190734863 0.24084582924842834 0.6570096015930176
0.08421874791383743 0.1308242231607437 0.019160157069563866 0.2256164252758026 0.5609002709388733 0.7965476512908936
0.00048828125 0.05161718651652336 0.11290234327316284 0.27059948444366455 -0.9058911204338074 -0.32578712701797485
0.15598827600479126 -0.025882812216877937 -0.0426015630364418 0.3536831736564636 -0.9340676665306091 -0.04925243556499481
0.012449218891561031 0.14278516173362732 0.01422265637665987 -0.02911550924181938 0.6850458979606628 0.7279178500175476
0.09617968648672104 -0.21831640601158142 0.11290234327316284 0.46620994806289673 -0.8761776089668274 0.12231548875570297
-0.15501561760902405 -0.1921406239271164 -0.2893671989440918 -0.3451343774795532 -0.7925111651420593 0.5028004050254822
-0.08324609696865082 -0.12224999815225601 0.017207032069563866 -0.2716529369354248 -0.8841670155525208 0.3800702691078186
0.009031250141561031 -0.10841015726327896 -0.26987889409065247 -0.3306956887245178 0.8945003747940063 -0.3008478283882141
0.012187499552965164 -0.000750000006519258 0.20859766006469727 -0.22671757638454437 0.5691940188407898 0.7903273105621338
-0.15501561760902405 -0.13233202695846558 -0.05532421916723251 -0.004667927045375109 -0.9977908730506897 -0.06626913696527481
0.012449218891561031 0.23411327600479126 -0.11437500268220901 0.14385788142681122 -0.9708750247955322 -0.19158963859081268
0.14402733743190765 0.20115233957767487 -0.16222265362739563 -0.4257904291152954 -0.8972240686416626 -0.11701058596372604
0.03637109324336052 -0.10384765267372131 -0.26987889409065247 0.016298945993185043 -0.9838593006134033 0.17819996178150177
0.07225780934095383 -0.07252734154462814 -0.22594140470027924 0.20333240926265717 -0.7445868849754333 0.6358036398887634
0.19187499582767487 0.015359374694526196 0.11290234327316284 -0.47829413414001465 -0.8199245929718018 -0.31457656621932983
-0.10718359053134918 0.20259766280651093 -0.11437500268220901 0.23440289497375488 -0.9603410959243774 -0.15099766850471497
-0.18110546469688416 0.1308242231607437 -0.0784921869635582 0.8999313116073608 -0.36920449137687683 -0.23197335004806519
-0.09049218893051147 -0.08448828011751175 0.10094140470027924 0.9344523549079895 0.3406866788864136 0.10359224677085876
-0.08324609696865082 0.14278516173362732 -0.2888828217983246 0.3197959363460541 -0.5638147592544556 0.7614745497703552
-0.04735937342047691 -0.18904297053813934 -0.2990702986717224 -0.18088120222091675 0.8752259016036987 -0.44862186908721924
0.23972265422344208 0.11266015470027924 -0.0426015630364418 -0.4477963149547577 -0.880310595035553 -0.15662597119808197
-0.15501561760902405 -0.19823047518730164 -0.3058398365974426 0.2875179052352905 0.911945104598999 -0.2927277684211731
0.23986327648162842 -0.03663671761751175 0.029167968779802322 0.9347763061523438 -0.34508568048477173 0.0843157172203064
-0.1742851585149765 -0.14429686963558197 -0.2818359434604645 0.9040864706039429 0.09170356392860413 -0.4173944890499115
-0.011476562358438969 0.14278516173362732 0.011933594010770321 0.005280246026813984 -0.7410071492195129 -0.6714763641357422
-0.21482811868190765 -0.000750000006519258 0.045417968183755875 -0.42225182056427 -0.12796878814697266 0.8974003195762634
0.012449218891561031 0.237367182970047 -0.17417968809604645 0.04646027833223343 -0.9873712658882141 0.15145763754844666
0.13206639885902405 -0.17235156893730164 0.16075000166893005 0.6455760598182678 -0.6429626941680908 0.4121050238609314
0.13206639885902405 0.08287499845027924 -0.25791797041893005 0.7993277311325073 0.3453262150287628 -0.49175703525543213
0.17991405725479126 -0.08448828011751175 0.02084374986588955 -0.3768223524093628 0.2533503770828247 0.890964925289154
0.09617968648672104 -0.2160625010728836 0.12272265553474426 0.4695669412612915 -0.8550074696540833 0.22015690803527832
0.00048828125 -0.19361719489097595 0.07701171934604645 0.4851001799106598 0.6103615760803223 0.6262080669403076
-0.14638671278953552 0.1786757856607437 -0.18614453077316284 0.5665662884712219 -0.7951046228408813 0.21635927259922028
-0.14305469393730164 -0.03663671761751175 0.07142578065395355 -0.38616079092025757 -0.32685691118240356 0.8625800609588623
0.23578906059265137 0.09494531154632568 -0.006718750111758709 0.4692472219467163 0.6607858538627625 0.5858063697814941
-0.0234375 -0.03663671761751175 0.21291406452655792 -0.3552742302417755 0.19574753940105438 0.914036750793457
-0.24746093153953552 0.047093749046325684 -0.018675781786441803 0.8181437253952026 -0.5283108353614807 0.22699882090091705
0.09617968648672104 -0.1488046944141388 0.24448047578334808 -0.15265457332134247 -0.9594109654426575 0.23712275922298431
-0.08883984386920929 0.10690625011920929 0.041132811456918716 -0.36263319849967957 0.538826048374176 0.7603707313537598
0.0769335925579071 0.1667148470878601 -0.006718750111758709 0.26023146510124207 0.6783382296562195 0.687122106552124
-0.0234375 -0.12037499994039536 0.20125390589237213 -0.5182992815971375 -0.3399815261363983 0.784715473651886
-0.2088945358991623 -0.000750000006519258 -0.23399609327316284 0.6018970608711243 0.2820896506309509 0.7470912933349609
-0.17894139885902405 0.12710155546665192 -0.06652344018220901 0.9002977013587952 -0.3207820653915405 -0.29421573877334595
0.19187499582767487 0.03178124874830246 -0.26987889409065247 -0.5897263884544373 -0.785224974155426 0.18879754841327667
0.09617968648672104 -0.04860156401991844 -0.20884375274181366 0.32231447100639343 -0.8068883419036865 0.495019793510437
0.012449218891561031 -0.02467968687415123 0.22212891280651093 -0.4022255539894104 0.4956654906272888 0.7697598934173584
-0.19090233743190765 0.08387890458106995 -0.006718750111758709 0.5472123622894287 -0.8369230628013611 -0.010881634429097176
0.08421874791383743 -0.05701953172683716 0.3042929768562317 0.2832901179790497 0.5073916912078857 0.8138183951377869
-0.041945312172174454 -0.1801796853542328 0.14878515899181366 0.6512619256973267 0.5717354416847229 -0.49897539615631104
-0.14305469393730164 0.1547500044107437 -0.034367188811302185 0.5673606991767883 -0.5919719934463501 -0.5724255442619324
-0.08465234190225601 -0.12037499994039536 0.12485937774181366 0.8586533665657043 0.48344600200653076 0.1702772080898285
0.21580077707767487 -0.07925000041723251 -0.2818359434604645 0.4956873953342438 -0.8684800863265991 0.0060326112434268
0.10814452916383743 -0.10841015726327896 0.2980351448059082 0.2775443196296692 -0.28138989210128784 0.9185798168182373
-0.21482811868190765 0.008835937827825546 -0.23399609327316284 0.6012722253799438 0.27943405508995056 0.748590886592865
0.024410156533122063 -0.13233202695846558 0.2287929654121399 -0.5726038813591003 -0.5758823156356812 0.5835103392601013
-0.14638671278953552 0.1786757856607437 -0.18614453077316284 0.5665662884712219 -0.7951046228408813 0.21635927259922028
0.07225780934095383 -0.14194922149181366 0.2684023380279541 -0.16549192368984222 -0.9309719204902649 0.3254285454750061
-0.04735937342047691 0.11886328458786011 0.04558202996850014 -0.011014100164175034 0.6812845468521118 0.7319357991218567
0.08051562309265137 -0.10841015726327896 -0.26987889409065247 -0.2618420720100403 -0.9299290180206299 0.2582068145275116
-0.07128515839576721 -0.13233202695846558 -0.1310429722070694 -0.2692060172557831 -0.8778783679008484 -0.39605259895324707
-0.17894139885902405 0.06911718845367432 0.041132811456918716 0.19340544939041138 -0.7237849831581116 -0.6623666882514954
-0.2175585925579071 0.047093749046325684 0.041132811456918716 -0.5173137784004211 0.3605802059173584 0.7761239409446716
0.024410156533122063 -0.09358984231948853 -0.18614453077316284 0.3300994634628296 -0.7693097591400146 -0.5469889044761658
0.06029687449336052 -0.1921406239271164 0.0491953119635582 0.10091821849346161 0.6520760655403137 0.7514068484306335
-0.08324609696865082 -0.00514453137293458 0.14878515899181366 0.7683248519897461 -0.6395614743232727 -0.02525871992111206
0.07225780934095383 0.2243046909570694 -0.10241015255451202 -0.43799516558647156 -0.8803476691246033 -0.182066410779953
0.20383593440055847 -0.03450390696525574 -0.018675781786441803 0.06932507455348969 -0.887281596660614 -0.4559883177280426
0.06029687449336052 0.21456250548362732 -0.22948437929153442 -0.17636999487876892 -0.8542566299438477 0.48901867866516113
-0.059324219822883606 -0.06055859476327896 0.20366796851158142 -0.3146721124649048 -0.09558992087841034 0.9443749189376831
0.07225780934095383 -0.10593359172344208 -0.2938007712364197 -0.24285081028938293 -0.9698018431663513 0.022536572068929672
0.19194141030311584 -0.10841015726327896 0.13682031631469727 0.7228518128395081 -0.5004028677940369 0.476531445980072
0.21580077707767487 -0.10841015726327896 0.10794921964406967 0.5830184817314148 -0.6668432950973511 0.4641222357749939
0.20319139957427979 -0.09644531458616257 0.13682031631469727 0.6676877737045288 -0.455427885055542 0.5888789892196655
0.19187499582767487 -0.09050781279802322 0.22055859863758087 0.9430752992630005 0.22418810427188873 -0.24565961956977844
-0.16492968797683716 0.09494531154632568 -0.26987889409065247 -0.5766302943229675 0.2594250738620758 -0.7747232913970947
0.006476562470197678 -0.14429686963558197 0.20859766006469727 0.4959394037723541 0.4605979919433594 -0.7361342310905457
0.10814452916383743 -0.1921406239271164 0.16463671624660492 0.4513311982154846 -0.753362238407135 0.4782734811306
-0.17167188227176666 -0.13233202695846558 -0.030644530430436134 -0.12413523346185684 -0.9856464862823486 0.11441771686077118
0.17991405725479126 -0.027601562440395355 -0.030644530430436134 -0.03564193844795227 -0.9486658573150635 -0.31426531076431274
0.23972265422344208 -0.012710937298834324 0.038273438811302185 0.9166675209999084 -0.010447037406265736 0.3995141386985779
0.19187499582767487 0.016019530594348907 -0.2938007712364197 -0.4160534143447876 -0.5937051177024841 0.6887770295143127
-0.20286327600479126 0.13117578625679016 -0.18614453077316284 0.7009472846984863 -0.697388768196106 0.14940467476844788
0.14402733743190765 0.1594257801771164 -0.23399609327316284 -0.6136367321014404 -0.39531880617141724 0.6835005283355713
-0.09520702809095383 0.11886328458786011 -0.2962968647480011 0.2591915428638458 -0.34841388463974 0.9007927179336548
0.26487109065055847 -0.000750000006519258 -0.030644530430436134 0.8551904559135437 -0.4821273386478424 -0.1902695745229721
0.024410156533122063 -0.016343750059604645 0.22055859863758087 -0.1890028566122055 0.6064612865447998 0.7723228931427002
0.07660156488418579 -0.14429686963558197 0.24448047578334808 -0.18884095549583435 -0.9524280428886414 0.239206925034523
-0.10717187821865082 0.1786757856607437 -0.24025781452655792 0.3857711851596832 -0.7581890225410461 0.5256710052490234
0.13206639885902405 0.1547500044107437 -0.03960546851158142 0.6373135447502136 0.6279374957084656 0.44668322801589966
-0.08324609696865082 -0.06275390833616257 0.19663281738758087 -0.46984168887138367 -0.10968678444623947 0.8759095668792725
0.14402733743190765 -0.15717187523841858 0.24448047578334808 0.044318873435258865 -0.9535582661628723 0.2979303002357483
0.07225780934095383 -0.07252734154462814 0.30976173281669617 0.10553932934999466 0.16130152344703674 0.981245756149292
-0.09520702809095383 -0.08448828011751175 0.060289062559604645 -0.44690996408462524 -0.6790280342102051 0.5824022889137268
-0.17625781893730164 -0.13233202695846558 -0.3058398365974426 -0.49702855944633484 -0.2934665083885193 -0.8166027069091797
0.23972265422344208 0.011210937052965164 0.03486328199505806 0.7638803124427795 0.11514422297477722 0.6350029110908508
0.09617968648672104 -0.14429686963558197 0.013691406697034836 -0.21238653361797333 0.582308828830719 0.7847346067428589
0.16795311868190765 -0.10841015726327896 0.276304692029953 -0.4287705719470978 0.14554175734519958 -0.8916128277778625
-0.08464062213897705 0.19063280522823334 -0.06652344018220901 0.10332589596509933 -0.9142065048217773 -0.391854852437973
0.14402733743190765 -0.10841015726327896 -0.30091798305511475 -0.3929421901702881 0.8293914794921875 0.39712241291999817
-0.11913280934095383 0.023167969658970833 0.08496484160423279 -0.21518069505691528 0.259103387594223 0.9415745735168457
0.012449218891561031 -0.2279921919107437 0.10094140470027924 -0.41660192608833313 -0.7836385369300842 -0.46081826090812683
0.13692578673362732 -0.03663671761751175 -0.030644530430436134 0.7303105592727661 -0.6261624693870544 -0.27306970953941345
0.07225780934095383 -0.02467968687415123 0.23093359172344208 -0.050224702805280685 -0.8009907603263855 -0.5965662002563477
0.22776171565055847 0.023167969658970833 -0.09482421725988388 0.7375585436820984 -0.19058360159397125 -0.6478312611579895
0.048332031816244125 0.011210937052965164 0.2071835994720459 -0.09507736563682556 0.6432676911354065 0.7597150206565857
-0.07128515839576721 0.1777695268392563 -0.25791797041893005 0.2720687687397003 -0.7466416954994202 0.6070459485054016
-0.14305469393730164 -0.07252734154462814 0.05202343687415123 -0.3255024552345276 -0.4435155689716339 0.8350701332092285
0.2060859352350235 -0.012710937298834324 -0.12633202970027924 0.8049697279930115 -0.5297933220863342 -0.26710057258605957
0.08421874791383743 -0.09644531458616257 -0.13596484065055847 0.6065693497657776 -0.6469168066978455 -0.4621387720108032
0.08421874791383743 -0.1018046885728836 -0.25791797041893005 -0.15251390635967255 -0.8958753347396851 0.41730910539627075
0.20383593440055847 0.03512890636920929 0.04861718788743019 0.2820427715778351 0.5893486142158508 0.7570469379425049
0.17443358898162842 0.1786757856607437 -0.15025781095027924 0.859280526638031 0.5072088241577148 -0.066152423620224
-0.21482811868190765 -0.11684765666723251 -0.10241015255451202 -0.5584021806716919 -0.8253417015075684 0.08365479856729507
0.12010546773672104 -0.09635546803474426 -0.24595312774181366 0.04617339372634888 0.6188637614250183 -0.7841401100158691
0.2589375078678131 0.09494531154632568 -0.0426015630364418 0.8578843474388123 0.5063878297805786 0.08721157908439636
-0.10717187821865082 0.11354296654462814 -0.2938007712364197 0.3647482097148895 -0.3829317092895508 0.8487178683280945
0.15598827600479126 -0.04860156401991844 0.002468750113621354 -0.42635348439216614 0.48892679810523987 0.761034369468689
-0.08324609696865082 -0.09644531458616257 -0.18461328744888306 -0.029007047414779663 -0.9404329061508179 -0.33873963356018066
0.12010546773672104 0.038832031190395355 0.07701171934604645 -0.3660057485103607 -0.8880306482315063 -0.2782827913761139
-0.059324219822883606 -0.003003906225785613 0.18466797471046448 -0.4239497184753418 0.6073234677314758 0.6718815565109253
-0.07128515839576721 0.21172265708446503 -0.12633202970027924 0.20260562002658844 -0.9629442095756531 -0.17801521718502045
-0.04735937342047691 0.19133202731609344 -0.0545664057135582 0.2269948273897171 -0.8538423776626587 -0.468429833650589
-0.09520702809095383 -0.01425781287252903 0.10094140470027924 0.7889178991317749 -0.09080784022808075 -0.6077520251274109
0.08421874791383743 -0.15625780820846558 0.020011719316244125 0.1289590746164322 -0.6385837197303772 -0.7586701512336731
0.10814452916383743 0.148011714220047 -0.006718750111758709 0.4792536199092865 0.5958542227745056 0.6444173455238342
0.03637109324336052 -0.1116015613079071 -0.16222265362739563 0.32540789246559143 -0.7358828186988831 -0.5937896370887756
-0.003605468664318323 -0.2041054666042328 0.08897656202316284 0.48895230889320374 0.6091626286506653 0.6243768930435181
-0.16698047518730164 -0.1152656227350235 -0.19810546934604645 -0.12291078269481659 -0.9114530086517334 -0.39261478185653687
-0.20442578196525574 -0.10841015726327896 -0.18614453077316284 -0.500326931476593 -0.686551570892334 -0.5275603532791138
0.09617968648672104 0.16805468499660492 -0.018675781786441803 -0.4310733675956726 -0.6800195574760437 -0.5930843949317932
0.23972265422344208 0.07101953029632568 0.009808593429625034 0.5859296321868896 0.45329126715660095 0.671724259853363
-0.04735937342047691 -0.1854570358991623 0.12485937774181366 0.808326005935669 0.5874379873275757 -0.039059557020664215
-0.24300000071525574 0.03512890636920929 -0.21007031202316284 0.8438414335250854 -0.030908852815628052 0.5357016921043396
-0.0234375 0.043480467051267624 0.11290234327316284 0.34815898537635803 -0.8314208388328552 -0.43304121494293213
0.06401953101158142 -0.14429686963558197 0.2325156182050705 0.21978771686553955 0.9231933951377869 -0.315289169549942
-0.13109375536441803 0.011210937052965164 0.08430077880620956 -0.24170751869678497 0.16514194011688232 0.9561932682991028
-0.08324609696865082 0.20429296791553497 -0.10241015255451202 0.19396117329597473 -0.9389028549194336 -0.28432467579841614
-0.0870351567864418 -0.09644531458616257 0.053089842200279236 -0.5989194512367249 -0.6871230602264404 0.41128748655319214
-0.04735937342047691 -0.13233202695846558 -0.2523554563522339 0.35965657234191895 -0.34694546461105347 0.8661847114562988
0.1262187510728836 -0.06055859476327896 -0.09044922143220901 0.8441638350486755 -0.5259461998939514 -0.10376902669668198
0.19322265684604645 -0.13233202695846558 0.22055859863758087 0.8795899152755737 -0.36587491631507874 -0.30406755208969116
0.03637109324336052 0.09494531154632568 0.056523438543081284 -0.15833780169487 -0.7176175117492676 -0.678199291229248
-0.07128515839576721 0.10690625011920929 0.04875781387090683 -0.2790490388870239 0.54695063829422 0.7892886996269226
0.21199218928813934 0.07101953029632568 -0.11437500268220901 0.7783492803573608 0.04185779020190239 -0.6264346241950989
-0.059324219822883606 0.15875780582427979 -0.006718750111758709 0.023242732509970665 -0.8303467631340027 -0.556762158870697
-0.21482811868190765 0.11465234309434891 -0.19810546934604645 0.7470450401306152 -0.5987297892570496 0.2888707220554352
0.048332031816244125 -0.034492187201976776 0.24448047578334808 0.12430126219987869 -0.8492909073829651 -0.5130829811096191
-0.050035156309604645 -0.15625780820846558 0.16075000166893005 -0.6191877126693726 -0.47620412707328796 0.6243686079978943
0.17569921910762787 0.11886328458786011 -0.18614453077316284 0.9175732731819153 0.07768421620130539 -0.38990318775177
-0.08298437297344208 -0.10841015726327896 0.17270703613758087 0.603783130645752 0.5517802834510803 -0.5753124952316284
0.17991405725479126 -0.012710937298834324 -0.21216796338558197 0.7127065658569336 -0.5537718534469604 0.4305647909641266
-0.09520702809095383 0.158203125 -0.26987889409065247 -0.3289281725883484 0.658501923084259 -0.676891028881073
-0.20286327600479126 -0.000750000006519258 0.05072265490889549 -0.4273163676261902 -0.13540633022785187 0.8939048051834106
-0.23572656512260437 -0.09644531458616257 -0.09044922143220901 0.8072606325149536 0.5865722298622131 -0.06529360264539719
-0.24487890303134918 0.07101953029632568 -0.18614453077316284 0.8802444338798523 -0.37146249413490295 0.29527175426483154
-0.2607109248638153 0.03512890636920929 -0.12633202970027924 0.91690993309021 -0.3287319540977478 -0.22629958391189575
0.03637109324336052 -0.13038672506809235 0.2564453184604645 -0.5595160722732544 -0.782833993434906 0.2722364664077759
0.13206639885902405 -0.0280156247317791 -0.16222265362739563 0.3336986303329468 -0.8896203637123108 -0.31180259585380554
0.16795311868190765 -0.14429686963558197 0.1354375034570694 0.7873197793960571 -0.5715911984443665 0.2311084270477295
0.22776171565055847 0.11176171898841858 -0.030644530430436134 -0.29749101400375366 -0.9090225100517273 -0.2918512225151062
-0.21214844286441803 0.047093749046325684 -0.0545664057135582 0.7169188857078552 -0.691416323184967 0.08927922695875168
0.09617968648672104 -0.12037499994039536 0.29695311188697815 0.13962727785110474 -0.5392861366271973 0.8304665684700012
0.048332031816244125 -0.14811328053474426 0.005242187529802322 0.15367387235164642 -0.8869310617446899 -0.43558889627456665
0.18767577409744263 0.14278516173362732 -0.15025781095027924 0.9308643341064453 0.22595268487930298 -0.2871183156967163
-0.061964843422174454 -0.08448828011751175 0.19663281738758087 -0.2996125817298889 -0.3297065794467926 0.8952797651290894
0.00048828125 0.16327343881130219 -0.006718750111758709 -0.14315348863601685 0.6988803148269653 0.7007662653923035
-0.25999608635902405 0.011210937052965164 -0.17417968809604645 0.9355175495147705 0.004130813758820295 0.35325607657432556
0.23481249809265137 -0.04860156401991844 0.041132811456918716 0.9577003121376038 -0.27543261647224426 -0.08334837853908539
-0.24510937929153442 0.011210937052965164 -0.06652344018220901 0.8952550888061523 -0.4422861337661743 -0.0538632832467556
-0.267765611410141 -0.02467968687415123 -0.12633202970027924 0.9993255138397217 0.034480251371860504 -0.012635834515094757
0.08421874791383743 0.18453125655651093 -0.030644530430436134 -0.37911656498908997 -0.7264994382858276 -0.5731223821640015
0.20383593440055847 -0.01848437450826168 -0.0545664057135582 0.2123234122991562 -0.9528653025627136 -0.21671751141548157
0.14818750321865082 -0.1682148426771164 0.13682031631469727 0.7268121242523193 -0.6260072588920593 0.28259336948394775
-0.25071093440055847 -0.06055859476327896 -0.16902343928813934 0.8191348314285278 0.3104570806026459 0.4823220372200012
-0.20575781166553497 0.11886328458786011 -0.21007031202316284 0.7086493372917175 -0.5696462988853455 0.41631627082824707
0.011738281697034836 0.1786757856607437 -0.018675781786441803 0.1497224122285843 -0.6999894380569458 -0.6982821822166443
-0.09369140863418579 -0.02467968687415123 0.12485937774181366 0.9483887553215027 -0.3089454770088196 0.07149451971054077
-0.07128515839576721 -0.11078515648841858 0.053089842200279236 -0.6840368509292603 -0.6750912666320801 0.2763066589832306
0.19187499582767487 -0.02467968687415123 -0.22705078125 0.4983190894126892 -0.35573068261146545 0.7906540036201477
0.048332031816244125 -0.13758984208106995 -0.10241015255451202 0.4034558832645416 -0.8851582407951355 -0.23177194595336914
0.17991405725479126 -0.09376952797174454 -0.2818359434604645 0.4698793888092041 -0.8765743970870972 -0.10407068580389023
0.17241406440734863 -0.04860156401991844 0.005242187529802322 -0.11127123236656189 0.6724594235420227 0.7317219376564026
-0.10273828357458115 -0.03663671761751175 0.17270703613758087 0.8783273100852966 -0.3124280869960785 -0.36184224486351013
-0.0234375 -0.17952734231948853 -0.2990702986717224 -0.5959545373916626 0.7348642349243164 -0.3237479627132416
-0.035398438572883606 -0.1574414074420929 0.17270703613758087 -0.5797193646430969 -0.4543001353740692 0.6764147281646729
-0.0234375 0.03978515788912773 0.12485937774181366 -0.3457874357700348 0.8938901424407959 0.2852918803691864
0.17991405725479126 -0.04478124901652336 -0.23399609327316284 0.30936312675476074 -0.4701049327850342 0.8266170620918274
-0.19090233743190765 0.07408203184604645 -0.0426015630364418 0.8013257384300232 -0.5898435115814209 0.09980838000774384
-0.0234375 -0.1540234386920929 -0.0545664057135582 -0.07377365976572037 -0.9912030100822449 0.10988196730613708
0.13206639885902405 0.059058595448732376 -0.2840273380279541 0.5993406772613525 0.47780874371528625 -0.6422534584999084
0.17991405725479126 -0.0074609373696148396 -0.17417968809604645 -0.6231757402420044 0.7706878781318665 0.13301213085651398
0.06624218821525574 0.22652344405651093 -0.10241015255451202 0.2731444537639618 0.9476680755615234 0.16527941823005676
-0.14305469393730164 -0.12144531309604645 -0.17417968809604645 0.2478669136762619 -0.9457741379737854 -0.20993643999099731
0.048332031816244125 0.045765623450279236 0.16075000166893005 0.03806693106889725 -0.9133741855621338 -0.40533748269081116
0.0969218760728836 -0.10841015726327896 -0.0426015630364418 0.6868347525596619 -0.7209609150886536 -0.0920509397983551
-0.09520702809095383 -0.10494140535593033 0.041132811456918716 -0.32223886251449585 -0.7375514507293701 0.5934475660324097
-0.04044531285762787 -0.1682148426771164 0.16075000166893005 -0.5772038102149963 -0.5055062770843506 0.6413260698318481
0.20383593440055847 -0.02816796861588955 -0.030644530430436134 0.07736615836620331 -0.8997647166252136 -0.42946237325668335
-0.09520702809095383 0.1899140626192093 -0.06652344018220901 0.11358577013015747 -0.9129956960678101 -0.3918381333351135
0.07225780934095383 0.2065703123807907 -0.0545664057135582 -0.30038174986839294 -0.8314975500106812 -0.4673142433166504
-0.1838359385728836 -0.1801796853542328 -0.30576562881469727 0.6370329856872559 0.48764684796333313 -0.5969837307929993
0.14402733743190765 0.11886328458786011 -0.013566406443715096 -0.4113537073135376 -0.7679441571235657 -0.49096834659576416
0.16795311868190765 -0.036574218422174454 -0.10241015255451202 0.34970659017562866 -0.9368004202842712 0.010499521158635616
0.07225780934095383 -0.2160625010728836 0.14793358743190765 -0.32924163341522217 0.8273867964744568 -0.4550066590309143
0.15598827600479126 0.0019218750530853868 0.16075000166893005 0.5664909482002258 0.5355880856513977 0.6262853741645813
0.17466796934604645 -0.02467968687415123 -0.0426015630364418 0.06980384886264801 -0.9864770770072937 -0.14829158782958984
-0.15501561760902405 -0.10841015726327896 -0.214906245470047 0.43488016724586487 0.861523449420929 0.26202392578125
0.21580077707767487 -0.009671875275671482 0.12485937774181366 0.7059576511383057 0.48374083638191223 0.5173187255859375
0.09617968648672104 -0.07253125309944153 -0.15025781095027924 0.6679473519325256 -0.5243212580680847 -0.5281415581703186
-0.2014804631471634 -0.06055859476327896 -0.22202734649181366 0.7128354907035828 0.2766219973564148 0.6444733142852783
-0.24196484684944153 0.023167969658970833 -0.0784921869635582 0.7738310098648071 -0.5753164887428284 -0.26494619250297546
0.2008085995912552 0.10690625011920929 -0.12633202970027924 0.9112065434455872 0.2091376781463623 -0.354914128780365
0.21580077707767487 -0.04860156401991844 -0.24658203125 0.4029581844806671 -0.3669646382331848 0.8384280800819397
-0.13825391232967377 0.09494531154632568 0.017207032069563866 0.395831823348999 -0.6662232279777527 -0.6320315003395081
-0.05821875110268593 0.11886328458786011 -0.3005703091621399 -0.20346002280712128 0.3497150242328644 -0.9144962430000305
-0.011476562358438969 -0.21873828768730164 0.11290234327316284 -0.5571346879005432 -0.7744157910346985 -0.29980170726776123
0.2562929689884186 0.07101953029632568 -0.0784921869635582 0.8495950102806091 0.0839896947145462 -0.5207054018974304
0.024410156533122063 0.19063280522823334 -0.02912890538573265 0.08414968103170395 -0.7497593760490417 -0.656338095664978
0.1054062470793724 -0.09644531458616257 -0.09044922143220901 0.7426068186759949 -0.6359198093414307 -0.21009796857833862
-0.15501561760902405 0.03512890636920929 0.07228515297174454 -0.293168842792511 0.3423258066177368 0.8926730155944824
0.17991405725479126 -0.08449609577655792 -0.25791797041893005 0.4771133065223694 -0.7257546186447144 0.49562397599220276
-0.14305469393730164 -0.12037499994039536 -0.10051562637090683 -0.03000507690012455 0.9893757104873657 0.14225132763385773
0.03637109324336052 -0.1319570243358612 0.24448047578334808 -0.46690884232521057 -0.820381760597229 0.33010590076446533
-0.19090233743190765 0.08455859124660492 0.005242187529802322 0.32560640573501587 -0.9292846322059631 -0.17438620328903198
-0.15300780534744263 0.023167969658970833 -0.2818359434604645 -0.583895206451416 -0.22976277768611908 -0.7786369323730469
-0.13109375536441803 0.0829765647649765 0.03479296714067459 0.29686734080314636 -0.7075371146202087 -0.64129638671875
-0.04735937342047691 0.22210156917572021 -0.16222265362739563 0.334741473197937 -0.9421277046203613 0.018533378839492798
-0.10717187821865082 -0.18280859291553497 -0.2818359434604645 0.13051532208919525 -0.7842661738395691 0.6065412759780884
-0.08324609696865082 -0.19622266292572021 -0.2990702986717224 -0.1847774088382721 0.8423141837120056 -0.5063241124153137
0.16795311868190765 0.03924218565225601 0.053089842200279236 0.19361765682697296 0.7042361497879028 0.6830546259880066
-0.09520702809095383 0.11886328458786011 0.03002343699336052 -0.39136824011802673 0.5641716718673706 0.7270084023475647
0.18514452874660492 0.1547500044107437 -0.15025781095027924 0.921828031539917 0.34553709626197815 -0.17560534179210663
0.10814452916383743 0.03981250151991844 0.14878515899181366 -0.31901609897613525 -0.897883415222168 -0.30337122082710266
0.06029687449336052 0.22565233707427979 -0.09044922143220901 -0.20922590792179108 -0.9364679455757141 -0.28151795268058777
-0.08324609696865082 0.19854296743869781 -0.22202734649181366 0.2667524218559265 -0.8656003475189209 0.42376789450645447
-0.17894139885902405 0.1386679708957672 -0.22202734649181366 0.5950561165809631 -0.6622197031974792 0.45538249611854553
-0.035398438572883606 -0.1574414074420929 0.17270703613758087 -0.5797193646430969 -0.4543001353740692 0.6764147281646729
0.00048828125 0.10533593595027924 0.053089842200279236 -0.10709208250045776 -0.6791058778762817 -0.7261862754821777
0.09617968648672104 -0.07898437231779099 0.3042929768562317 0.35888147354125977 0.15650857985019684 0.9201679825782776
-0.15501561760902405 0.10439843684434891 -0.006718750111758709 0.658681333065033 -0.4793700873851776 -0.5799509882926941
0.048332031816244125 -0.012710937298834324 -0.30881640315055847 0.03661365807056427 -0.0031050166580826044 -0.9993246793746948
0.08421874791383743 -0.1281445324420929 -0.006718750111758709 0.5157725214958191 -0.732406497001648 -0.4444766044616699
-0.21659766137599945 -0.012710937298834324 -0.22202734649181366 0.678955078125 0.26534128189086914 0.6845539212226868
0.20383593440055847 -0.13796484470367432 0.06505468487739563 -0.6523740887641907 0.7578399777412415 -0.009310316294431686
0.2542421817779541 -0.000750000006519258 0.017207032069563866 0.9080771207809448 -0.06248877942562103 0.4141148030757904
-0.08324609696865082 -0.022328125312924385 0.18466797471046448 -0.5485390424728394 0.5551826357841492 0.6252016425132751
-0.13109375536441803 0.1667148470878601 -0.03675781190395355 0.41339311003685 -0.7318888902664185 -0.5417054891586304
0.10814452916383743 -0.0035078125074505806 0.20859766006469727 0.40040645003318787 0.5761781334877014 0.7125260829925537
-0.10512500256299973 0.19063280522823334 -0.22202734649181366 0.39079344272613525 -0.8366659283638 0.383758544921875
0.06563671678304672 -0.1921406239271164 0.18466797471046448 0.1379365622997284 -0.7213796377182007 0.6786640882492065
-0.2020273506641388 -0.04860156401991844 0.041132811456918716 -0.350095272064209 -0.2501698434352875 0.902689516544342
-0.035398438572883606 -0.19751952588558197 0.13682031631469727 0.7237883806228638 0.655616283416748 -0.21516892313957214
0.16795311868190765 -0.012710937298834324 -0.17555078864097595 0.4323294758796692 -0.8873202800750732 -0.16048024594783783
0.11046484112739563 -0.06055859476327896 -0.13829687237739563 0.7514970898628235 -0.5072572827339172 -0.421831876039505
-0.16364844143390656 0.1308242231607437 -0.24595312774181366 0.562204122543335 -0.5734376907348633 0.5958990454673767
0.12449999898672104 -0.07252734154462814 -0.0426015630364418 0.9011375308036804 -0.42979902029037476 -0.05677976831793785
-0.11913280934095383 0.13028515875339508 0.005242187529802322 0.4958488643169403 -0.5628546476364136 -0.661308228969574
-0.14900000393390656 -0.012710937298834324 0.07701171934604645 -0.39560428261756897 -0.21226532757282257 0.8935551047325134
-0.2586132884025574 0.047093749046325684 -0.16222265362739563 0.9629464745521545 -0.24145196378231049 0.12014611810445786
0.16218359768390656 0.11886328458786011 -0.22202734649181366 0.8379104137420654 -0.002289418363943696 -0.5458030104637146
0.22776171565055847 0.09903515875339508 -0.006718750111758709 -0.3958554267883301 -0.7004846930503845 -0.5938178896903992
-0.04044531285762787 -0.1682148426771164 0.16075000166893005 -0.5772038102149963 -0.5055062770843506 0.6413260698318481
0.00048828125 -0.13233202695846558 0.21155859529972076 0.510029673576355 0.3973791301250458 -0.7628627419471741
0.09617968648672104 -0.14945703744888306 0.2325156182050705 -0.12774330377578735 -0.9593117833137512 0.251798540353775
0.048332031816244125 0.23515234887599945 -0.15025781095027924 -0.21177959442138672 -0.9770079851150513 0.024592328816652298
0.21580077707767487 0.07101953029632568 0.023457031697034836 0.32319632172584534 0.512794017791748 0.7953530550003052
0.020937500521540642 -0.10841015726327896 0.2684023380279541 0.7425503134727478 0.5621317028999329 -0.36417990922927856
0.16795311868190765 0.14278516173362732 -0.20154687762260437 0.9136674404144287 0.1613021045923233 -0.3730863034725189
0.12010546773672104 -0.11026953160762787 -0.30576562881469727 -0.026351721957325935 0.8627535104751587 0.5049376487731934
-0.23799218237400055 0.023167969658970833 -0.0545664057135582 0.8055703639984131 -0.5500162243843079 0.220314621925354
0.07210156321525574 -0.10841015726327896 -0.2818359434604645 -0.31345120072364807 -0.9461257457733154 0.08120574802160263
-0.17894139885902405 0.011210937052965164 -0.25883984565734863 0.5188119411468506 0.29128745198249817 0.8037323951721191
-0.08324609696865082 -0.17250390350818634 -0.26987889409065247 -0.015772152692079544 -0.7306746244430542 0.6825436353683472
0.15598827600479126 -0.15125781297683716 0.2564453184604645 0.13998045027256012 -0.8872129917144775 0.43961188197135925
-0.1667499989271164 -0.1921406239271164 -0.3058398365974426 0.39402881264686584 0.716729998588562 -0.5753602385520935
-0.22678905725479126 -0.0980546846985817 -0.17417968809604645 0.6740482449531555 0.5415012240409851 0.5024294853210449
0.10288672149181366 -0.06055859476327896 -0.15025781095027924 0.7063851356506348 -0.4978242814540863 -0.5031809210777283
0.15598827600479126 0.02894921787083149 0.12485937774181366 -0.3629419803619385 -0.8984103798866272 -0.24724863469600677
0.08421874791383743 -0.03856249898672104 0.2684023380279541 -0.21783705055713654 -0.9179016351699829 -0.33166787028312683
-0.035398438572883606 0.034757811576128006 0.12485937774181366 0.3728862404823303 -0.8805440068244934 -0.2925715744495392
-0.15501561760902405 0.17994922399520874 -0.15025781095027924 0.6437921524047852 -0.7576245069503784 0.10740936547517776
-0.035398438572883606 -0.09644531458616257 -0.19522656500339508 0.04734578728675842 -0.9278838038444519 -0.36985138058662415
-0.14420312643051147 -0.12037499994039536 -0.13829687237739563 0.21347573399543762 -0.9769480228424072 0.0008376811747439206
0.048332031816244125 0.06075781211256981 0.10094140470027924 -0.07462053000926971 -0.9373572468757629 -0.3402840197086334
-0.0302578117698431 -0.12037499994039536 0.19663281738758087 0.5093327760696411 0.38743457198143005 -0.7684234380722046
0.12039452791213989 0.059058595448732376 -0.2938007712364197 -0.5740692615509033 -0.3347891569137573 0.7472353577613831
-0.0755312517285347 -0.09644531458616257 -0.22202734649181366 -0.19281864166259766 0.8514285087585449 -0.4877402186393738
0.08421874791383743 -0.1018046885728836 -0.25791797041893005 -0.15251390635967255 -0.8958753347396851 0.41730910539627075
0.07225780934095383 -0.012710937298834324 -0.30387890338897705 0.016922395676374435 0.017706146463751793 -0.9997000098228455
0.048332031816244125 0.050511717796325684 0.14878515899181366 0.01728854514658451 -0.9429156184196472 -0.3325826823711395
0.11540625244379044 0.09494531154632568 0.029167968779802322 0.317231684923172 0.5970904231071472 0.7367815375328064
0.10814452916383743 -0.09644531458616257 0.2999257743358612 0.3234958052635193 -0.02266225777566433 0.9459581971168518
-0.16698047518730164 0.07926172018051147 0.029167968779802322 -0.2014935165643692 0.789898693561554 0.5791894197463989
0.13809765875339508 -0.1921406239271164 0.10094140470027924 0.6453173756599426 -0.758242666721344 0.09291698038578033
-0.11913280934095383 0.08332812786102295 0.041132811456918716 -0.36907216906547546 0.6348210573196411 0.678813636302948
0.08421874791383743 -0.14723438024520874 0.2325156182050705 -0.09724012762308121 -0.9575390219688416 0.2714099586009979
