ply
format ascii 1.0
element vertex 399
property float x
property float y
property float z
property float nx
property float ny
property float nz
end_header
0.05488423630595207 -0.1652417778968811 -0.10743589699268341 -0.5691601037979126 0.44246843457221985 -0.6930212378501892
-0.010530823841691017 0.6486909985542297 0.19041645526885986 0.5896206498146057 -0.15591584146022797 -0.7924883365631104
0.03103017434477806 0.5747231245040894 0.1679767221212387 0.3279402256011963 0.35475844144821167 -0.8755578994750977
0.00042328424751758575 -0.316873699426651 -0.11068123579025269 -0.5454199314117432 -0.4524476230144501 0.7055553197860718
0.1326795220375061 0.27467456459999084 -0.07700972259044647 0.635312020778656 -0.2269209921360016 0.7381635904312134
0.08722416311502457 0.4694802165031433 0.14892977476119995 -0.3865010738372803 0.402736634016037 -0.829710841178894
0.18529821932315826 0.009066052734851837 -0.42396295070648193 -0.22282539308071136 -0.03130297735333443 -0.9743556380271912
0.01718580722808838 0.34401950240135193 0.011203750967979431 0.705651044845581 0.35104548931121826 -0.6154866218566895
0.01762005314230919 0.4848702847957611 0.1229320764541626 0.5254412889480591 0.48085445165634155 -0.7019191384315491
0.1880188286304474 0.32282575964927673 -0.35370010137557983 0.7496737241744995 0.05408528819680214 0.6595938801765442
0.05397185683250427 0.6302700638771057 0.20012128353118896 0.2646317780017853 0.19330047070980072 -0.9447777271270752
-0.13965614140033722 0.2471548318862915 -0.15861660242080688 0.8534097671508789 -0.047652192413806915 -0.5190579295158386
-0.05616364628076553 -0.39824870228767395 -0.24569372832775116 0.6622508764266968 0.5169511437416077 -0.5423885583877563
-0.003095325082540512 -0.3429272472858429 -0.18566298484802246 0.5681273937225342 -0.0004987657302990556 0.822940468788147
-0.07293204218149185 0.24109885096549988 -0.08387076109647751 -0.643695056438446 0.17723673582077026 0.7444756031036377
0.11220696568489075 0.24036872386932373 0.36791786551475525 -0.21991169452667236 0.537301778793335 0.814214825630188
0.05027713254094124 -0.021099068224430084 0.43519261479377747 -0.25932949781417847 -0.15008507668972015 -0.954055905342102
-0.04014755040407181 0.7176350951194763 0.13718627393245697 0.3452385365962982 -0.261516809463501 -0.901343047618866
0.19263090193271637 0.3739878535270691 -0.3342210650444031 -0.09492433071136475 0.015502066351473331 0.9953637719154358
0.09287585318088531 0.5260330438613892 0.16131965816020966 -0.5511907935142517 0.23655672371387482 -0.8001435399055481
0.14247426390647888 0.13963140547275543 -0.503715455532074 -0.2528122365474701 0.4045499265193939 0.8788773417472839
0.1120285838842392 -0.05015779286623001 -0.1253841519355774 -0.7315656542778015 0.09903747588396072 -0.6745392680168152
0.015908055007457733 -0.02742695063352585 0.4339396357536316 -0.10972370207309723 0.03231595829129219 0.9934366345405579
0.07992559671401978 -0.0975358709692955 -0.10506170988082886 0.7655850052833557 -0.2743690609931946 0.5818945169448853
0.15974397957324982 0.0654715746641159 -0.4316260814666748 -0.16748355329036713 -0.5652391314506531 -0.8077462315559387
0.11489928513765335 0.3289225697517395 -0.04148111119866371 0.5451328158378601 -0.40424033999443054 0.7344521284103394
-0.009097950533032417 -0.6054068207740784 -0.3510270416736603 -0.136797696352005 0.18046143651008606 -0.974022626876831
0.18233272433280945 0.1128825843334198 -0.4875730574131012 0.10632403194904327 0.49309688806533813 0.8634527325630188
0.13855531811714172 -0.06382245570421219 -0.16271096467971802 0.8192850351333618 -0.18392939865589142 0.5430855751037598
0.08521576970815659 0.258890837430954 0.35067281126976013 -0.13115552067756653 0.7698390483856201 0.6246166825294495
0.02913617715239525 -0.49206170439720154 -0.2864739000797272 0.5199066996574402 -0.4976593554019928 0.6942853927612305
-0.0566372349858284 -0.7188742756843567 -0.3761918246746063 -0.09526292234659195 0.10071609169244766 -0.9903440475463867
-0.11558626592159271 -0.0781368538737297 -0.09607381373643875 0.8039745688438416 0.02308003604412079 -0.5942156314849854
0.02554137445986271 -0.21785685420036316 -0.12340746819972992 0.511936604976654 -0.5086019039154053 0.6922752261161804
0.18120317161083221 0.2438739538192749 -0.495796263217926 -0.3306097090244293 0.12180457264184952 0.9358744025230408
0.09505734592676163 0.47092241048812866 0.14921534061431885 -0.4796721339225769 0.38925787806510925 -0.7863796949386597
0.12259035557508469 0.1660727858543396 -0.10111027956008911 0.7217462658882141 -0.20820708572864532 0.6601001024246216
0.17440442740917206 0.29923221468925476 -0.32178205251693726 0.6322741508483887 0.36244866251945496 0.6847338676452637
-0.17075411975383759 -0.060497038066387177 -0.18084308505058289 0.8286713361740112 -0.11864625662565231 -0.5470163822174072
0.04082067310810089 -0.18534541130065918 -0.11844499409198761 0.42402276396751404 -0.49277129769325256 0.7598560452461243
-0.10288776457309723 0.0979069173336029 -0.07774169743061066 -0.4696202278137207 -0.023358793929219246 0.8825594782829285
0.18123576045036316 0.3108455240726471 -0.33579349517822266 0.691737711429596 0.26644977927207947 0.6711955070495605
0.053426939994096756 0.046337857842445374 0.4254792332649231 0.5166949033737183 -0.12537328898906708 0.8469403982162476
-0.10263285040855408 -0.016596809029579163 -0.09472481906414032 0.5725632309913635 0.3605521023273468 -0.7363243699073792
0.0304553285241127 0.0877334475517273 0.4590538442134857 0.7614733576774597 0.15446171164512634 0.6295235753059387
-0.04923763871192932 -0.764271080493927 -0.39075663685798645 0.501263439655304 -0.39763861894607544 0.7685170769691467
-0.017511138692498207 0.7503297924995422 0.14224320650100708 0.007476648781448603 -0.10935036838054657 -0.9939751625061035
0.05231902748346329 0.4802576005458832 0.1423109471797943 0.5338773727416992 0.39271852374076843 -0.7488304972648621
0.0326373353600502 0.4945267140865326 0.13240015506744385 -0.5131803750991821 -0.45507150888442993 0.7277058959007263
-0.15778496861457825 -0.019022904336452484 -0.18247051537036896 0.7766200304031372 -0.24771301448345184 -0.5792232155799866
0.02695552259683609 -0.5186057686805725 -0.31412631273269653 0.38340339064598083 -0.6004835367202759 0.7017273902893066
-0.0007498767226934433 -0.49120500683784485 -0.27477267384529114 -0.056190721690654755 0.5384474992752075 -0.8407834768295288
-0.026234550401568413 -0.5403291583061218 -0.30993691086769104 0.43246522545814514 0.5541380643844604 -0.7112698554992676
0.10127538442611694 0.12319023162126541 -0.0918697714805603 0.5264685153961182 0.04043014347553253 0.8492327928543091
-0.022543946281075478 -0.501576840877533 -0.28835800290107727 0.42894110083580017 0.5295800566673279 -0.7318158745765686
0.07161646336317062 0.44061923027038574 0.12870918214321136 0.29463696479797363 0.5510218739509583 -0.780745804309845
0.01419863011687994 -0.502299964427948 -0.28023093938827515 -0.27136337757110596 0.5642344355583191 -0.7797445058822632
0.14408352971076965 0.009986549615859985 -0.19910146296024323 0.7051830291748047 0.5070525407791138 0.4955953359603882
0.1176973432302475 0.24149316549301147 -0.0741705596446991 0.7360448241233826 -0.014784994535148144 0.676771342754364
-0.14176465570926666 -0.1982879340648651 -0.3313399851322174 -0.9315216541290283 -0.35535672307014465 0.07738925516605377
-0.01540079154074192 0.6318386197090149 0.187872052192688 -0.6234369277954102 0.07217283546924591 0.7785354852676392
-0.030128413811326027 -0.6137535572052002 -0.35245752334594727 -0.27744653820991516 -0.11155729740858078 0.9542423486709595
0.18175223469734192 0.4057147204875946 -0.3414616584777832 -0.3330497443675995 0.2829185128211975 0.8994637131690979
-0.04743693023920059 0.6684144139289856 0.18115724623203278 -0.40757861733436584 0.07861635088920593 0.9097797870635986
0.1190934032201767 0.2550515830516815 -0.08004485070705414 0.6824084520339966 -0.08679290860891342 0.7258000373840332
-0.05052217096090317 -0.34782886505126953 -0.19077299535274506 0.6187383532524109 0.5002678036689758 -0.6057186722755432
0.17985108494758606 0.3669820725917816 -0.33537718653678894 0.011898164637386799 0.07447127252817154 0.9971521496772766
0.10980760306119919 0.10329839587211609 -0.08684418350458145 0.5951661467552185 -0.011264045722782612 0.8035237789154053
0.005117030814290047 -0.55070960521698 -0.3269866406917572 -0.19094403088092804 0.6248047947883606 -0.7570729851722717
0.04458233714103699 -0.09912603348493576 0.4314643442630768 -0.030534718185663223 -0.19126760959625244 0.9810628890991211
0.10330948978662491 0.11487842351198196 -0.08518583327531815 0.5951661467552185 -0.011264045722782612 0.8035237789154053
-0.0997905433177948 -0.19002088904380798 -0.12042450904846191 -0.6380851864814758 -0.38636139035224915 0.6660122275352478
-0.17792490124702454 -0.0922713354229927 -0.18562205135822296 0.8305788636207581 -0.008577012456953526 -0.5568350553512573
-0.08250844478607178 -0.6911728382110596 -0.38811585307121277 -0.5053434371948242 0.0494319386780262 0.8615013360977173
-0.012257972732186317 0.35056865215301514 -0.023636434227228165 0.7211353778839111 0.40473127365112305 -0.5622778534889221
-0.10263285040855408 -0.016596809029579163 -0.09472481906414032 0.5725632309913635 0.3605521023273468 -0.7363243699073792
0.023626388981938362 -0.42290762066841125 -0.24862191081047058 -0.6468886733055115 0.26869142055511475 -0.7136805653572083
0.091072678565979 0.0713500827550888 0.37424564361572266 0.5084294676780701 0.020480681210756302 0.8608600497245789
-0.1543726921081543 0.16116905212402344 -0.17150630056858063 -0.8578113913536072 -0.1917429268360138 0.4768587648868561
-0.06539815664291382 -0.7204872369766235 -0.37651121616363525 -0.022708037868142128 0.017406953498721123 0.9995905756950378
0.15466858446598053 -0.0184025838971138 -0.18741926550865173 0.8148623108863831 0.2625594437122345 0.5167803168296814
0.01636410877108574 -0.31486648321151733 -0.193169966340065 0.6529648900032043 -0.34034183621406555 0.676612377166748
0.016162307932972908 0.3791801333427429 0.036155883222818375 0.6751300692558289 0.46556177735328674 -0.5722338557243347
-0.11222349107265472 0.06213241443037987 -0.07523554563522339 -0.4883817434310913 0.2106388509273529 0.8468261957168579
-0.18743278086185455 -0.02472236007452011 -0.21123121678829193 0.7608144879341125 -0.1728355437517166 -0.6255311965942383
0.10492470115423203 0.14947974681854248 -0.08793661743402481 0.6410457491874695 -0.034275077283382416 0.7667369246482849
-0.1512051522731781 -0.06915605813264847 -0.1503555327653885 -0.6517753005027771 0.04850228875875473 0.7568596601486206
-0.026962975040078163 0.756740152835846 0.14310768246650696 0.03287763521075249 -0.03515917435288429 -0.9988407492637634
0.05762190371751785 0.07907357066869736 0.42642444372177124 0.31914421916007996 -0.07212570309638977 0.9449576139450073
-0.04163239896297455 -0.5415043234825134 -0.32604867219924927 0.5902037024497986 0.44766339659690857 -0.6717567443847656
-0.13984893262386322 0.1121024638414383 -0.20629608631134033 -0.8538621664047241 -0.2773163616657257 0.4404713809490204
-0.1280675232410431 -0.03871776908636093 -0.12588293850421906 -0.8381207585334778 -0.1911388635635376 0.5109007954597473
0.1890288144350052 0.01445431262254715 -0.42312952876091003 0.18204106390476227 0.0399000309407711 0.982481062412262
-0.003650244325399399 0.6363649368286133 0.19654926657676697 -0.5766105651855469 0.07860138267278671 0.8132294416427612
-0.04299033433198929 -0.5105825066566467 -0.32147416472435 0.7600474953651428 0.30606719851493835 -0.5732805728912354
-0.03938477486371994 -0.5945888161659241 -0.35759758949279785 0.41935837268829346 0.18231886625289917 -0.8893247246742249
0.05554275959730148 0.41185396909713745 0.1045493632555008 -0.40380412340164185 -0.263654500246048 0.8760300278663635
-0.1185622364282608 0.21301957964897156 -0.11609743535518646 0.8004573583602905 -0.06894519180059433 -0.5954113006591797
0.007242728024721146 0.7317479252815247 0.15156064927577972 0.21784105896949768 -0.5958570241928101 -0.7729811072349548
0.10023479908704758 0.17423394322395325 -0.0843074768781662 0.687785267829895 -0.29520347714424133 0.6631790399551392
0.0398901142179966 -0.1458636224269867 -0.08890184760093689 0.4658014178276062 -0.46897462010383606 0.7503945231437683
0.06000198423862457 -0.06821880489587784 0.436190128326416 0.2814159691333771 0.0866430476307869 0.9556663036346436
0.1871209293603897 0.2643521726131439 -0.4927043914794922 -0.3527587056159973 0.1391250193119049 0.9253137707710266
-0.09196151793003082 -0.09841234236955643 -0.07911963015794754 -0.6569753289222717 -0.13804152607917786 0.7411665916442871
-0.04810722917318344 0.7161695957183838 0.1368960738182068 -0.31614547967910767 0.17570887506008148 0.9322973489761353
0.04742388799786568 0.6012553572654724 0.19575737416744232 0.23831722140312195 0.3394934833049774 -0.9099171161651611
-0.08096543699502945 0.1906103491783142 -0.055891282856464386 -0.47861790657043457 0.2080330103635788 0.8530223965644836
0.012302474118769169 -0.4282055199146271 -0.24161304533481598 -0.5952537059783936 0.38923078775405884 -0.7029739618301392
-0.15942588448524475 -0.1010952964425087 -0.16306687891483307 0.7587223052978516 0.0759676992893219 -0.6469694375991821
0.06761901825666428 0.5553784966468811 0.1772892326116562 0.07927589118480682 0.26919135451316833 -0.959818422794342
0.17956624925136566 0.34366539120674133 -0.3388385772705078 0.5399929881095886 -0.026473993435502052 0.8412531018257141
-0.014105735346674919 0.6448676586151123 0.18586745858192444 -0.5598356127738953 0.07445614784955978 0.8252516984939575
0.006708288565278053 0.1306319534778595 0.4178103506565094 0.07247892022132874 -0.6389551162719727 -0.7658218741416931
0.055202238261699677 0.5570813417434692 0.17742827534675598 0.3157963454723358 0.259518027305603 -0.9126462340354919
-0.009967481717467308 -0.5155476331710815 -0.2824171185493469 0.23279236257076263 0.5381080508232117 -0.8100910186767578
0.1522265523672104 0.14125828444957733 -0.49548661708831787 0.23054689168930054 -0.25418853759765625 -0.9392743706703186
0.08904915302991867 0.2691580653190613 0.32458680868148804 0.5006988048553467 0.6545870304107666 0.5664066672325134
0.03821919858455658 -0.43451812863349915 -0.25810906291007996 0.6090930104255676 -0.16841554641723633 0.7750109434127808
0.03494558855891228 -0.10440879315137863 0.4305925667285919 -0.018918916583061218 -0.17135672271251678 0.9850274324417114
-0.11170920729637146 0.22291769087314606 -0.11456647515296936 0.7706414461135864 -0.04873135685920715 -0.635403037071228
-0.0068549495190382 -0.3588329553604126 -0.17226020991802216 -0.24226930737495422 0.6045924425125122 -0.7587974667549133
0.03641251102089882 0.6158941984176636 0.19387902319431305 -0.17477157711982727 0.4782213866710663 -0.860673725605011
-0.1335851401090622 -0.044302813708782196 -0.1425585150718689 -0.8018537759780884 -0.06506011635065079 0.5939677357673645
0.011631285771727562 0.3479640781879425 0.003839779645204544 0.7178745269775391 0.3932870626449585 -0.5744401812553406
0.016827844083309174 -0.25100481510162354 -0.14815010130405426 0.6817192435264587 -0.4608705937862396 0.5682052373886108
0.0913843885064125 0.21748703718185425 0.37618064880371094 0.05931506305932999 0.37205269932746887 0.9263144731521606
0.05979027599096298 0.5995594263076782 0.1956188976764679 0.11766505241394043 -0.17089708149433136 0.9782377481460571
0.04081658646464348 0.0015271753072738647 0.4226658344268799 0.3884316384792328 0.3958045542240143 0.832141637802124
0.055669642984867096 0.6425008177757263 0.20195111632347107 0.2528899013996124 -0.07959060370922089 -0.9642157554626465
0.07906363904476166 0.6013638377189636 0.18421535193920135 0.3904828727245331 -0.21336698532104492 0.8955432176589966
-0.015961898490786552 0.5495589375495911 0.12037338316440582 -0.5995008945465088 -0.41129106283187866 0.6866137385368347
0.20902609825134277 0.4322618246078491 -0.5070879459381104 0.19866541028022766 0.07395213842391968 0.9772732853889465
0.20868898928165436 0.0554257333278656 -0.46031275391578674 0.6639816761016846 0.46154946088790894 0.5883030891418457
0.007831878960132599 -0.48962488770484924 -0.2744598090648651 0.15168261528015137 -0.5363714694976807 0.8302397727966309
-0.0351020023226738 0.7766038179397583 0.14203067123889923 0.09646432846784592 0.04008674621582031 -0.9945288896560669
-0.04177115112543106 0.6582876443862915 0.17575769126415253 -0.36396685242652893 -0.006522314622998238 0.9313890337944031
0.08949726819992065 0.2559870779514313 0.3502812385559082 -0.16856731474399567 0.7462514042854309 0.64396733045578
-0.02384381927549839 -0.25864356756210327 -0.1062144786119461 -0.3349910378456116 0.4820047914981842 0.8096001744270325
0.09376620501279831 0.45276153087615967 0.13071292638778687 0.6165395379066467 -0.5434463620185852 0.5696884989738464
0.09919873625040054 0.6291218996047974 0.2280086874961853 0.2545887529850006 -0.6330715417861938 -0.7310301065444946
0.19926634430885315 0.10151143372058868 -0.4812066853046417 -0.4857466518878937 -0.5328126549720764 -0.6929364800453186
0.08347764611244202 0.1399967223405838 0.45544400811195374 -0.6070595383644104 -0.12636089324951172 0.7845455408096313
0.07161987572908401 0.09674357622861862 0.37783461809158325 0.8471757769584656 0.0014817954506725073 0.5313107371330261
0.0557912215590477 0.43219518661499023 0.10756903886795044 0.4973251521587372 0.39271366596221924 -0.7735914587974548
0.1557602882385254 0.12260659039020538 -0.49822109937667847 0.1307637095451355 -0.5054590702056885 -0.8528845310211182
0.018700670450925827 -0.023393459618091583 0.4345634877681732 -0.17443664371967316 0.04897146672010422 0.9834498763084412
-0.1013723611831665 0.1403031349182129 -0.06354048103094101 -0.34388840198516846 -0.07182331383228302 0.9362596869468689
0.027515767142176628 0.6261844635009766 0.21506989002227783 -0.22164984047412872 0.22405743598937988 -0.949036180973053
0.1980029046535492 0.01597299426794052 -0.4307205080986023 0.14584845304489136 0.06699187308549881 0.9870361685752869
0.0119608324021101 0.46289458870887756 0.09592550992965698 -0.5345441102981567 -0.49461328983306885 0.6852884888648987
-0.1311875879764557 -0.10747236758470535 -0.12821219861507416 0.7889281511306763 0.02035168558359146 -0.6141484379768372
-0.11302594840526581 0.2529025673866272 -0.11013057827949524 0.7336233854293823 -0.061041977256536484 -0.6768091917037964
0.00968240387737751 0.06636624038219452 0.4556942582130432 0.019056590273976326 -0.4396597146987915 0.8979622721672058
-0.026882706210017204 -0.49666622281074524 -0.27977094054222107 0.41389137506484985 0.5298253893852234 -0.7402560710906982
-0.16715224087238312 -0.08980482071638107 -0.16936102509498596 0.7990597486495972 0.001974015962332487 -0.6012484431266785
-0.10107941925525665 -0.02479606121778488 -0.09592688828706741 0.6567896604537964 0.22998681664466858 -0.7181459069252014
-0.033181071281433105 0.7678211331367493 0.14469456672668457 0.06664635241031647 0.04240311682224274 -0.9968752861022949
0.010984177701175213 0.010243430733680725 0.427635133266449 0.08749402314424515 0.12738341093063354 0.9879869818687439
-0.013947775587439537 -0.2858809232711792 -0.1062152087688446 -0.5762331485748291 0.2914213538169861 0.763563334941864
0.04497773200273514 -0.34902194142341614 -0.2374664545059204 0.7926859855651855 -0.253082275390625 0.5546153783798218
-0.049207814037799835 -0.7771095037460327 -0.4084574282169342 0.501263439655304 -0.39763861894607544 0.7685170769691467
0.053741682320833206 0.5647902488708496 0.17855845391750336 -0.3202384114265442 -0.3999214470386505 0.8587841391563416
0.1367444545030594 -0.012583211064338684 -0.17092332243919373 0.7460429072380066 0.42309606075286865 0.5142079591751099
0.05428805202245712 -0.05890921503305435 0.43356969952583313 -0.31570786237716675 -0.16300615668296814 -0.9347500205039978
0.04935271292924881 -0.12658244371414185 0.4234859347343445 -0.022687125951051712 -0.13915234804153442 0.9900110960006714
-0.04805421829223633 0.7578964233398438 0.1391371637582779 0.10082503408193588 0.047325752675533295 -0.9937779307365417
0.03969130292534828 0.3213302791118622 0.027789637446403503 -0.7069599628448486 -0.35056450963020325 0.6142575144767761
0.07161987572908401 0.09674357622861862 0.37783461809158325 0.8471757769584656 0.0014817954506725073 0.5313107371330261
0.0319814532995224 -0.09112755209207535 0.4285864531993866 -0.02831890620291233 -0.21076321601867676 0.9771268963813782
-0.18184319138526917 -0.08473148196935654 -0.2003360539674759 -0.828113853931427 0.011519787833094597 0.5604416131973267
0.1836230605840683 0.041598789393901825 -0.4270506799221039 -0.19658105075359344 -0.1456473022699356 -0.9696095585823059
0.0027366355061531067 -0.4861692488193512 -0.2739937901496887 -0.05144840106368065 0.5569528341293335 -0.8289490938186646
0.18661893904209137 0.3071945905685425 -0.3362858295440674 0.691737711429596 0.26644977927207947 0.6711955070495605
-0.02159186266362667 -0.390945702791214 -0.20480266213417053 0.367240309715271 0.5625022649765015 -0.7407602667808533
-0.09874206781387329 0.1665521264076233 -0.06752096116542816 0.5647569894790649 -0.16367438435554504 -0.8088635802268982
0.0029566586017608643 -0.30291426181793213 -0.10068902373313904 -0.5063275098800659 -0.06584427505731583 0.8598238229751587
-0.09305744618177414 -0.18029600381851196 -0.11892034113407135 -0.6210358738899231 -0.40042608976364136 0.6737754940986633
0.06661693006753922 -0.10726097971200943 -0.08293111622333527 -0.654729962348938 0.3450147211551666 -0.6725277304649353
-0.06203557550907135 0.7462074756622314 0.14122451841831207 -0.10323069244623184 -0.10288050770759583 0.9893225431442261
0.11281950026750565 0.15116676688194275 -0.09551247954368591 0.6377624869346619 -0.04442354664206505 0.7689509391784668
0.06555303931236267 0.4046328365802765 0.11146804690361023 -0.22213467955589294 -0.054183315485715866 0.9735093116760254
-0.05279280245304108 -0.7822874784469604 -0.40925830602645874 0.501263439655304 -0.39763861894607544 0.7685170769691467
-0.09518411755561829 -0.16324880719184875 -0.10851271450519562 -0.5890635848045349 -0.41428816318511963 0.6938078999519348
-0.09758596122264862 0.01828547567129135 -0.06580929458141327 0.42257508635520935 0.20270922780036926 -0.8833681344985962
0.19241775572299957 0.09051636606454849 -0.45525622367858887 -0.34628280997276306 -0.6015863418579102 -0.7198486924171448
0.20834502577781677 0.07919003069400787 -0.4844348132610321 -0.5244361162185669 -0.5426582098007202 -0.6561164855957031
0.11691952496767044 0.3141429126262665 0.30387064814567566 -0.17830799520015717 0.346541166305542 0.9209318161010742
0.11542513221502304 -0.04525201767683029 -0.12462536990642548 -0.7433885335922241 0.059029702097177505 -0.6662499904632568
0.09922172874212265 0.5559099912643433 0.16186046600341797 0.6521463990211487 -0.10866308212280273 0.7502648830413818
0.040693242102861404 0.39565667510032654 0.07831591367721558 0.6063512563705444 0.5332478284835815 -0.5899024605751038
-0.1168781965970993 -0.09982939809560776 -0.10720179975032806 0.8256514668464661 0.052373312413692474 -0.5617443919181824
-0.2119903862476349 0.02573227882385254 -0.4883105754852295 0.9992282390594482 0.03928118571639061 -1.3987465536047239e-05
0.17273740470409393 0.35570138692855835 -0.3292173147201538 -0.34290197491645813 -0.14404213428497314 -0.9282618761062622
0.06498976051807404 0.0022925063967704773 0.41510215401649475 0.4716184437274933 0.42733192443847656 0.7713387608528137
-0.0074071865528821945 -0.39157944917678833 -0.1968686431646347 -0.06938016414642334 0.5526432394981384 -0.8305250406265259
-0.032040759921073914 -0.6275297999382019 -0.3545185625553131 0.23604261875152588 0.21248917281627655 -0.9482258558273315
0.049166977405548096 0.06686177849769592 0.4245356321334839 0.4734813868999481 -0.06777956336736679 0.8781920671463013
0.0236076507717371 -0.35771191120147705 -0.207357719540596 0.7922244668006897 -0.20303283631801605 0.5754634141921997
0.009946240112185478 -0.3453105092048645 -0.18984641134738922 -0.7344991564750671 0.08428327739238739 -0.6733552813529968
0.0035119932144880295 0.4017237722873688 0.03938430920243263 -0.6575276255607605 -0.5308818221092224 0.5346233248710632
0.006469445303082466 -0.6159647703170776 -0.35245081782341003 0.2864201068878174 -0.06911351531744003 0.9556081295013428
0.23060384392738342 0.06409385800361633 -0.48647060990333557 0.6108638048171997 0.5354604721069336 0.5832045674324036
0.08949466049671173 0.2817385494709015 0.3106604516506195 0.14903482794761658 0.4625045359134674 0.8740012645721436
-0.14554332196712494 0.13241219520568848 -0.1835896521806717 -0.8538621664047241 -0.2773163616657257 0.4404713809490204
0.10742024332284927 0.26942190527915955 0.31689566373825073 0.43223607540130615 0.6291565895080566 0.6460139155387878
0.05201619863510132 -0.11815714091062546 -0.0807318240404129 0.6160306930541992 -0.32035136222839355 0.7196395993232727
0.09614607691764832 0.2578009366989136 0.34271278977394104 0.28017544746398926 0.8061108589172363 0.5212361216545105
0.08199843019247055 -0.06321325153112411 -0.09995134174823761 0.8383235931396484 -0.10933011025190353 0.5340977907180786
0.04238790646195412 0.04785170406103134 0.42560282349586487 -0.3980698883533478 0.1709972769021988 -0.9012770652770996
0.0695374384522438 0.6370701193809509 0.22101813554763794 -0.4152399003505707 0.21621620655059814 0.8836438059806824
0.21027959883213043 0.06996387988328934 -0.4778873920440674 0.5516659617424011 0.5437461733818054 0.6324594020843506
0.031593821942806244 0.36831173300743103 0.046532269567251205 0.6577571034431458 0.45108890533447266 -0.6032201647758484
0.16349008679389954 0.02385655790567398 -0.42196837067604065 -0.1619153618812561 -0.16029632091522217 -0.9736983776092529
-0.053896233439445496 -0.571787416934967 -0.36224624514579773 -0.5409941673278809 -0.32116326689720154 0.777289867401123
-0.06156430393457413 -0.6928682327270508 -0.3723791837692261 -0.3287169337272644 9.140291513176635e-05 0.9444285035133362
0.023387830704450607 0.0688895732164383 0.4561939239501953 0.47471651434898376 -0.3864680826663971 0.7907507419586182
0.0414041206240654 -0.3216251730918884 -0.21763847768306732 0.6799128651618958 -0.34834468364715576 0.645270824432373
0.042447321116924286 0.08338312059640884 0.4269249439239502 -0.6921218633651733 0.02471865713596344 -0.7213572263717651
0.011129413731396198 0.41624611616134644 0.06925231218338013 0.6670548319816589 0.45054489374160767 -0.5933356881141663
0.1836230605840683 0.041598789393901825 -0.4270506799221039 -0.19658105075359344 -0.1456473022699356 -0.9696095585823059
-0.13861222565174103 0.15896184742450714 -0.1558929681777954 0.8475022912025452 0.25113752484321594 -0.4676215648651123
-0.20002435147762299 -0.01833678036928177 -0.22619575262069702 0.7608144879341125 -0.1728355437517166 -0.6255311965942383
0.028895871713757515 0.41704434156417847 0.08927898108959198 0.6131737232208252 0.4091785252094269 -0.6757152080535889
0.15239867568016052 0.386303186416626 -0.3446096181869507 0.305473655462265 -0.33664053678512573 -0.8907070755958557
0.048436250537633896 -0.11946762353181839 0.4284821152687073 -0.022687125951051712 -0.13915234804153442 0.9900110960006714
0.14019666612148285 -0.007597029209136963 -0.17015211284160614 0.7087671160697937 0.5120510458946228 0.48523491621017456
-0.03442896902561188 0.6195342540740967 0.1700761765241623 -0.5971263647079468 -0.09578432142734528 0.7964078783988953
0.10312796384096146 0.5338466763496399 0.15072502195835114 0.6580970287322998 -0.14284665882587433 0.7392585873603821
-0.02904164232313633 0.676673412322998 0.1786014586687088 0.3504066467285156 -0.203510120511055 -0.9142203330993652
-0.0780453011393547 -0.3760444223880768 -0.24260006844997406 0.730860710144043 0.4492279291152954 -0.5138452649116516
0.08536483347415924 -0.13117775321006775 -0.12184986472129822 0.7855945825576782 -0.34806129336357117 0.5115609169006348
0.17643316090106964 0.054411668330430984 -0.42521578073501587 0.18549425899982452 0.3304823338985443 0.92540442943573
0.18297350406646729 0.32568132877349854 -0.34147515892982483 0.692435622215271 0.07630693167448044 0.7174330353736877
0.08969777077436447 0.5214428305625916 0.1606096774339676 -0.49600160121917725 0.2625080347061157 -0.8276907205581665
-0.06268999725580215 -0.37559500336647034 -0.22659634053707123 0.7331728339195251 0.3745169937610626 -0.5676218867301941
0.05902882665395737 0.5145372152328491 0.1672031283378601 -0.21111615002155304 -0.5012382864952087 0.8391603827476501
0.018992919474840164 0.39076730608940125 0.04974808171391487 0.6470584869384766 0.5421149134635925 -0.5361219644546509
0.023602616041898727 0.08647177368402481 0.45880401134490967 0.696408212184906 0.3085324466228485 0.6479377150535583
0.038925789296627045 -0.33607643842697144 -0.22770315408706665 0.7733137607574463 -0.22821378707885742 0.591526985168457
-0.04623392969369888 -0.7259299159049988 -0.37714332342147827 -0.20612545311450958 -0.014366748742759228 -0.9784201383590698
-0.015420110896229744 0.5803825259208679 0.15654395520687103 0.23025238513946533 0.8217888474464417 -0.5211975574493408
0.023626388981938362 -0.42290762066841125 -0.24862191081047058 -0.6468886733055115 0.26869142055511475 -0.7136805653572083
0.02733808010816574 0.5965775847434998 0.17908313870429993 -0.18665440380573273 -0.5845407247543335 0.7896026372909546
0.05033307522535324 0.5859000086784363 0.1935061663389206 0.38143929839134216 0.42814674973487854 -0.8192645311355591
0.17643316090106964 0.054411668330430984 -0.42521578073501587 0.18549425899982452 0.3304823338985443 0.92540442943573
-0.13356883823871613 0.20738369226455688 -0.14076563715934753 0.8483166694641113 -0.05007215961813927 -0.5271162390708923
-0.08041223138570786 -0.09208112210035324 -0.07807483524084091 0.6695666313171387 0.11926104873418808 -0.7331148386001587
-0.10067388415336609 -0.10016956180334091 -0.0834091305732727 0.6802101731300354 0.13952329754829407 -0.719616174697876
0.09147106856107712 0.6112751364707947 0.24898555874824524 -0.5694810152053833 0.2787337899208069 0.7733038067817688
0.031121090054512024 -0.1383552849292755 -0.07602079957723618 0.4733574390411377 -0.45688924193382263 0.7531168460845947
-0.04758622497320175 -0.629077672958374 -0.37068697810173035 0.6003783345222473 0.18369628489017487 -0.778332531452179
-0.1309448778629303 -0.13769680261611938 -0.1405917853116989 -0.7645273208618164 -0.22385093569755554 0.6044739484786987
0.16682186722755432 0.07624707370996475 -0.44181039929389954 0.044153761118650436 0.7048686742782593 0.7079622745513916
-0.0176673773676157 0.7716524004936218 0.14145562052726746 -0.12230455875396729 0.010696778073906898 -0.9924349784851074
0.15258777141571045 0.3619624972343445 -0.33637112379074097 0.05902450531721115 0.3880445659160614 0.9197486639022827
0.04986292123794556 0.36258959770202637 0.05374884232878685 -0.6560605764389038 -0.4484705626964569 0.6070080399513245
0.07550768554210663 0.6468738913536072 0.21857786178588867 0.2915778160095215 -0.43415382504463196 -0.8523455262184143
0.040394045412540436 0.6595520377159119 0.20434078574180603 0.002487759105861187 -0.08738698810338974 -0.9961713552474976
-0.02361431159079075 0.631134033203125 0.18374325335025787 0.6188677549362183 0.03850957378745079 -0.7845506072044373
0.020656125620007515 -0.5865436792373657 -0.37165167927742004 0.4982050955295563 -0.30355843901634216 0.8121846914291382
-0.027387527748942375 -0.3780285716056824 -0.1950412392616272 0.40720507502555847 0.582225501537323 -0.7037026882171631
0.023855848237872124 0.7162957787513733 0.17706449329853058 -0.07878001034259796 0.5161611437797546 0.8528607487678528
0.009787997230887413 0.6892101168632507 0.19266372919082642 0.2471088469028473 -0.3636653423309326 -0.8981562852859497
0.10980760306119919 0.10329839587211609 -0.08684418350458145 0.5951661467552185 -0.011264045722782612 0.8035237789154053
0.03777139261364937 -0.3809538781642914 -0.2422691285610199 0.7936401963233948 -0.3249850869178772 0.5143150091171265
0.008395133540034294 0.02390880137681961 0.4296385645866394 0.09016299992799759 -0.04431065917015076 0.9949408173561096
-0.006637578830122948 0.5855849981307983 0.18109093606472015 -0.07043396681547165 0.7443277835845947 -0.6640897989273071
0.025853578001260757 -0.16582190990447998 -0.09988914430141449 0.42206498980522156 -0.4919026494026184 0.7615070343017578
0.1450827717781067 0.043927401304244995 -0.42705774307250977 0.006471508182585239 -0.14288154244422913 -0.9897186160087585
0.1066596508026123 0.098408043384552 -0.08364924788475037 0.5951661467552185 -0.011264045722782612 0.8035237789154053
0.020216329023241997 0.41643545031547546 0.08121095597743988 0.6240628361701965 0.40741175413131714 -0.6667543053627014
0.15325471758842468 0.33692240715026855 -0.31638452410697937 0.4223051965236664 0.3137721121311188 0.8504148125648499
0.1210099309682846 -0.014917440712451935 -0.14771854877471924 0.6717649102210999 0.303067684173584 0.6759304404258728
0.012050727382302284 -0.31046390533447266 -0.184658020734787 0.6220393180847168 -0.3368651568889618 0.7068160772323608
0.15256112813949585 0.054728712886571884 -0.42538708448410034 -0.07574281841516495 -0.411528617143631 -0.9082440733909607
0.10458636283874512 0.20010825991630554 -0.06858202815055847 0.6557406187057495 -0.24916285276412964 0.7126865386962891
0.08852166682481766 0.3209797441959381 0.296726793050766 -0.14405761659145355 0.3442128300666809 0.92777419090271
0.006109250709414482 0.47348374128341675 0.10139194130897522 -0.5197145938873291 -0.5224664807319641 0.6759626865386963
-0.1316670924425125 -0.005019232630729675 -0.10117125511169434 -0.5624876022338867 -0.44625335931777954 0.6960356831550598
-0.12102478742599487 -0.04141271859407425 -0.11042167246341705 -0.8299351334571838 -0.16138017177581787 0.5340076684951782
-0.18254441022872925 -0.09772475808858871 -0.19437158107757568 0.8346239924430847 -0.017819993197917938 -0.5505317449569702
-0.11329028010368347 0.23126298189163208 -0.1133430004119873 0.7566580176353455 -0.05061744153499603 -0.651848554611206
0.008478600531816483 0.5115253329277039 0.1268024742603302 0.5232892036437988 0.45294445753097534 -0.7218101024627686
0.027600519359111786 0.01683826744556427 0.4287653863430023 -0.17304711043834686 0.015344658866524696 -0.984794020652771
0.12137669324874878 -0.036078549921512604 -0.13900676369667053 0.7652395367622375 0.10585718601942062 0.6349824666976929
-0.02223704196512699 0.7535349726676941 0.14267544448375702 -0.009704948402941227 -0.08207497000694275 -0.9965789318084717
0.05137090012431145 0.3546302914619446 0.052581947296857834 -0.6578320860862732 -0.43938228487968445 0.611719012260437
-0.06728564947843552 -0.4359720051288605 -0.2869337201118469 -0.7299193143844604 -0.4541691839694977 0.5108309388160706
0.04154057428240776 0.5406122207641602 0.16301283240318298 0.3616982400417328 0.2513270974159241 -0.8977800607681274
0.0670178085565567 0.02385672926902771 0.4064720571041107 0.6376868486404419 -0.06549565494060516 0.7675062417984009
0.1529550999403 0.20435349643230438 -0.2610185742378235 0.6237779259681702 0.19211174547672272 0.757624089717865
-0.06101008504629135 -0.5043745636940002 -0.34441298246383667 -0.7753530144691467 -0.30493542551994324 0.5530298948287964
-0.13542361557483673 -0.057547278702259064 -0.1445399969816208 0.7211578488349915 -0.012676642276346684 -0.6926547288894653
0.18175223469734192 0.4057147204875946 -0.3414616584777832 -0.3330497443675995 0.2829185128211975 0.8994637131690979
0.16722939908504486 0.05271713808178902 -0.42555132508277893 -0.10637671500444412 -0.285437673330307 -0.952475368976593
-0.005273360759019852 -0.5778543949127197 -0.3469049334526062 -0.25506097078323364 0.4833538830280304 -0.8374443054199219
-0.011015990749001503 0.5830023288726807 0.168820321559906 0.14212889969348907 0.8168181777000427 -0.5591130256652832
0.04146290570497513 0.3340928256511688 0.02969903126358986 -0.6968839168548584 -0.36544564366340637 0.6170918941497803
0.027630165219306946 0.2055080533027649 0.3777697682380676 -0.045915134251117706 0.5642704963684082 0.8243122696876526
-0.007363045588135719 0.3472488522529602 -0.024084124714136124 0.7211353778839111 0.40473127365112305 -0.5622778534889221
0.005065960809588432 0.33152562379837036 -0.014455365017056465 0.743861973285675 0.3535825312137604 -0.5671408772468567
0.03713186830282211 -0.0058451369404792786 0.44128432869911194 0.09879180788993835 0.2220894694328308 0.9700084924697876
0.015517013147473335 0.042897649109363556 0.4325205087661743 0.2329626977443695 -0.25800275802612305 0.9376369118690491
0.05177190154790878 0.1667892038822174 0.4393826723098755 0.3198607563972473 -0.44425728917121887 -0.8368539810180664
-0.1125481128692627 0.20932690799236298 -0.10869190096855164 0.8157635927200317 -0.15792998671531677 -0.5564062595367432
0.064961738884449 0.6401734352111816 0.22143661975860596 -0.46027785539627075 0.19252850115299225 0.8666470646858215
0.14162370562553406 -0.05923483520746231 -0.16990068554878235 0.8412038683891296 -0.12502743303775787 0.526064932346344
0.02707851678133011 -0.011292986571788788 0.43643510341644287 -0.05754595994949341 0.19064739346504211 0.979970395565033
-0.0013751965016126633 -0.5139656662940979 -0.28210386633872986 -0.08639218658208847 0.5992563366889954 -0.7958820462226868
0.01785852015018463 0.05389614775776863 0.4420717656612396 0.37934842705726624 -0.5024359822273254 0.776951014995575
-0.018378065899014473 -0.418516606092453 -0.2246597707271576 0.004853605758398771 -0.6076576709747314 0.7941842675209045
0.14408352971076965 0.009986549615859985 -0.19910146296024323 0.7051830291748047 0.5070525407791138 0.4955953359603882
0.14731837809085846 0.23121386766433716 -0.27288228273391724 0.6237779259681702 0.19211174547672272 0.757624089717865
-0.0021142028272151947 0.7056942582130432 0.18315266072750092 0.341871052980423 -0.44660821557044983 -0.8268405199050903
-0.11017109453678131 0.01174328476190567 -0.07479317486286163 0.5063985586166382 0.29604554176330566 -0.8098873496055603
-0.06161189824342728 -0.6393383145332336 -0.3881339132785797 0.5304304361343384 0.026844236999750137 -0.8473033308982849
0.1449422389268875 0.39971068501472473 -0.35058727860450745 -0.33267340064048767 0.4398331344127655 0.8341913223266602
-0.1316615343093872 0.25679218769073486 -0.14921557903289795 0.8293615579605103 -0.09810077399015427 -0.550032377243042
0.07113142311573029 0.5387457013130188 0.1827523559331894 -0.07574795931577682 0.1308056265115738 -0.9885100722312927
0.014420024119317532 0.686068594455719 0.19224008917808533 0.22980155050754547 -0.3595033288002014 -0.9044051170349121
0.18335933983325958 0.08880940824747086 -0.44769397377967834 0.17331340909004211 0.729204535484314 0.661984384059906
-0.09350110590457916 -0.09028614312410355 -0.07792827486991882 0.6695666313171387 0.11926104873418808 -0.7331148386001587
-0.22627651691436768 0.2685019075870514 -0.46822547912597656 0.9463579654693604 0.0010329601354897022 0.32311856746673584
0.10019916296005249 0.5079637169837952 0.1547570824623108 -0.4816306233406067 0.1759686917066574 -0.8585260510444641
-0.059012748301029205 0.7722015380859375 0.14115895330905914 -0.13776946067810059 0.005003010854125023 0.9904516935348511
-0.013016654178500175 0.5601955652236938 0.1338256299495697 -0.5645107626914978 -0.5018880367279053 0.6553136706352234
0.04822148010134697 -0.13704979419708252 0.4258720278739929 -0.022687125951051712 -0.13915234804153442 0.9900110960006714
0.010111406445503235 0.05948886647820473 0.44677966833114624 0.15665403008460999 -0.4899882376194 0.8575377464294434
-0.17819121479988098 -0.1140732392668724 -0.18885858356952667 0.8060173392295837 0.03790569677948952 -0.5906769037246704
-0.14592798054218292 -0.0938972607254982 -0.15002821385860443 0.7095877528190613 -0.012551461346447468 -0.7045052647590637
0.019662655889987946 0.11104758828878403 0.4347694516181946 0.32728877663612366 0.6445887088775635 0.6909322738647461
0.12954501807689667 0.2912190854549408 -0.07458418607711792 0.5873252749443054 -0.31283193826675415 0.7464483976364136
0.0020538847893476486 0.5022458434104919 0.1253672093153 -0.5308114290237427 -0.45319798588752747 0.7161360383033752
0.07172993570566177 0.3936251997947693 0.10989166796207428 0.14994539320468903 0.1271609365940094 -0.980482816696167
-0.1538616120815277 0.19701707363128662 -0.17803141474723816 0.8629950284957886 0.04558990150690079 -0.5031512379646301
0.07652047276496887 0.5748305916786194 0.19210362434387207 0.5028868913650513 -0.24393928050994873 0.8292155265808105
0.046376921236515045 0.43858006596565247 0.10843007266521454 0.5737720131874084 0.38056132197380066 -0.7252301573753357
-0.0424489751458168 -0.3785318434238434 -0.21105025708675385 0.6114080548286438 0.5212860703468323 -0.5953495502471924
-0.1519961655139923 -0.133912593126297 -0.15996873378753662 -0.7451133728027344 -0.13572856783866882 0.6529806852340698
0.018446488305926323 0.6682801842689514 0.20148564875125885 0.2606888711452484 -0.3197498917579651 -0.9109342694282532
0.029288670048117638 -0.41537436842918396 -0.2632492780685425 0.6575558185577393 -0.24456290900707245 0.7126073837280273
-0.05134099721908569 0.7114989161491394 0.13617366552352905 -0.40605321526527405 0.25076958537101746 0.8787692189216614
0.10855627059936523 0.06076344475150108 -0.4248943328857422 -0.08291545510292053 -0.2546621859073639 -0.9634688496589661
-0.09487058222293854 -0.1933576762676239 -0.12087449431419373 -0.6210358738899231 -0.40042608976364136 0.6737754940986633
0.053933948278427124 0.0038086920976638794 0.41522595286369324 -0.5175046324729919 -0.32813969254493713 -0.790261447429657
0.19093726575374603 0.2948766350746155 -0.49998897314071655 -0.2946859300136566 0.11989954859018326 0.9480423331260681
0.08609659224748611 0.6912766695022583 0.1936681568622589 -0.013426506891846657 0.4446605443954468 0.8955985307693481
-0.011420177295804024 0.6349344253540039 0.19626599550247192 0.609870970249176 -0.1792602241039276 -0.7719606757164001
0.06178530305624008 0.13640160858631134 0.44286486506462097 0.4772566556930542 0.29452845454216003 -0.8279366493225098
0.16788960993289948 0.23657560348510742 -0.49700066447257996 -0.3410703241825104 0.13106422126293182 0.9308561682701111
-0.027653584256768227 -0.41043969988822937 -0.21564814448356628 -0.3772517442703247 -0.5802541375160217 0.7217937707901001
-0.08072081208229065 -0.19444051384925842 -0.11300741136074066 -0.5890635848045349 -0.41428816318511963 0.6938078999519348
0.1890876293182373 0.0378926619887352 -0.42755046486854553 0.17137719690799713 0.10780325531959534 0.979289710521698
0.15088415145874023 0.3709545433521271 -0.33505281805992126 -0.011410578154027462 0.37392884492874146 0.9273872375488281
0.15975803136825562 0.26120132207870483 -0.2762184739112854 0.6385923027992249 0.29763099551200867 0.7096588611602783
0.2051369994878769 0.4266446530818939 -0.5079568028450012 0.19866541028022766 0.07395213842391968 0.9772732853889465
0.029288670048117638 -0.41537436842918396 -0.2632492780685425 0.6575558185577393 -0.24456290900707245 0.7126073837280273
0.034505970776081085 0.018109679222106934 0.4290171265602112 -0.2765709161758423 0.0034997453913092613 -0.9609871506690979
0.022715561091899872 -0.2321474552154541 -0.13740064203739166 0.6809670925140381 -0.4856182932853699 0.5481411814689636
0.11800612509250641 0.31252411007881165 -0.0438852421939373 0.5451328158378601 -0.40424033999443054 0.7344521284103394
-0.027387527748942375 -0.3780285716056824 -0.1950412392616272 0.40720507502555847 0.582225501537323 -0.7037026882171631
-0.10094752907752991 0.1884285807609558 -0.0840417668223381 0.8003914952278137 -0.21983103454113007 -0.5577165484428406
-0.029947297647595406 0.7724918127059937 0.1454169899225235 -0.053397249430418015 -0.05777328088879585 0.996900737285614
0.17956624925136566 0.34366539120674133 -0.3388385772705078 0.5399929881095886 -0.026473993435502052 0.8412531018257141
0.0725880116224289 0.5310576558113098 0.18162523210048676 0.11485975980758667 -0.27449363470077515 0.9547044038772583
0.15466858446598053 -0.0184025838971138 -0.18741926550865173 0.8148623108863831 0.2625594437122345 0.5167803168296814
0.017115890979766846 0.6552661657333374 0.20349213480949402 0.1558353751897812 -0.2734338641166687 -0.949183464050293
0.07811244577169418 -0.11059754341840744 -0.10701586306095123 0.7419877052307129 -0.26144835352897644 0.6173321008682251
0.0195932537317276 0.162861168384552 0.39506497979164124 -0.050696078687906265 0.04778235778212547 0.9975704550743103
-0.1573161482810974 -0.0661613866686821 -0.157865509390831 0.7116302847862244 -0.09510668367147446 -0.6960869431495667
-0.02017449028789997 -0.44290778040885925 -0.2440909892320633 0.22714270651340485 0.5921570658683777 -0.77314692735672
0.02149663120508194 0.13764658570289612 0.3992403745651245 -0.25803470611572266 0.466675728559494 0.8459502458572388
0.05561016499996185 -0.09226640313863754 -0.07685832679271698 0.713008463382721 -0.3058648109436035 0.63092440366745
0.2028122991323471 0.33596986532211304 -0.4937846064567566 -0.3642095923423767 0.2345527559518814 0.9012970924377441
0.19968181848526 0.07757139205932617 -0.45711004734039307 0.4358924329280853 0.565597653388977 0.7000693678855896
-0.0022356919944286346 0.14767825603485107 0.40051141381263733 0.015272507444024086 0.27853265404701233 0.9603053331375122
0.109812431037426 0.23958125710487366 -0.06662796437740326 0.7291916608810425 -0.013008812442421913 0.6841858625411987
-0.04513029754161835 -0.3930636942386627 -0.22112874686717987 -0.6232985854148865 -0.5290160179138184 0.5758827924728394
0.05800185352563858 -0.07888365536928177 -0.06695294380187988 0.7249156832695007 -0.2861470580101013 0.626591682434082
0.055614106357097626 0.08592203259468079 0.4195236563682556 0.19791699945926666 -0.1972348392009735 0.9601704478263855
0.04526562988758087 0.08745373040437698 0.42755454778671265 0.5311298966407776 -0.07338543236255646 0.8441064357757568
0.11084555089473724 0.052383746951818466 -0.09438735991716385 0.8764690160751343 -0.19232168793678284 0.4413778483867645
0.04875238984823227 0.4501191973686218 0.11806182563304901 0.544637143611908 0.4700930714607239 -0.6945379972457886
0.15430741012096405 0.022165872156620026 -0.42230314016342163 -0.12263262271881104 -0.17150849103927612 -0.9775203466415405
-0.10108426213264465 -0.1605607569217682 -0.11606623232364655 -0.6227512359619141 -0.37557172775268555 0.6863868236541748
0.1578468680381775 0.22407333552837372 -0.27384522557258606 0.6985159516334534 0.16359180212020874 0.6966443061828613
-0.022525804117321968 -0.3393729329109192 -0.16161851584911346 -0.057554684579372406 -0.7739928364753723 0.6305732727050781
0.09107620269060135 -0.091611348092556 -0.11197920143604279 0.8331068754196167 -0.23300087451934814 0.5016408562660217
0.03239935636520386 0.7326957583427429 0.16772791743278503 -0.18430139124393463 0.6497990489006042 0.7374240159988403
0.02707851678133011 -0.011292986571788788 0.43643510341644287 -0.05754595994949341 0.19064739346504211 0.979970395565033
0.027671296149492264 0.08371235430240631 0.4584318995475769 -0.7530787587165833 0.07465604692697525 -0.6536810994148254
0.03030845709145069 0.10956184566020966 0.4306972622871399 -0.36468982696533203 -0.5430330038070679 -0.7563838362693787
0.05607859417796135 0.5757555961608887 0.18810473382472992 -0.32519108057022095 -0.4325418174266815 0.8409271240234375
0.17275173962116241 0.37963351607322693 -0.3335654139518738 0.1864815503358841 -0.16872048377990723 -0.9678626656532288
0.05882204324007034 0.6470539569854736 0.2026553601026535 0.2722882628440857 -0.18713341653347015 -0.9438433051109314
-0.03786401450634003 -0.5025865435600281 -0.3044445216655731 0.7164446711540222 0.3859049379825592 -0.5811922550201416
0.0979766845703125 0.26304182410240173 0.3277103304862976 0.45698636770248413 0.696239173412323 0.5535472631454468
0.19808347523212433 0.03946932405233383 -0.43513262271881104 -0.382846474647522 -0.32238414883613586 -0.8657349944114685
-0.11403104662895203 -0.1374887228012085 -0.11276213824748993 0.7771057486534119 0.2913392186164856 -0.557878315448761
